ply
format ascii 1.0
element vertex 738
comment vertices
property float x
property float y
property float z
end_header
0.0501354187726974487 -0.765790879726409912 -0.114208050072193146
0.0947029590606689453 0.723652064800262451 -0.0414967909455299377
-0.290412068367004395 -0.640243411064147949 -0.104726657271385193
0.0117351710796356201 0.498064666986465454 -0.0858666375279426575
-0.202850699424743652 0.363805800676345825 0.109936244785785675
-0.211713492870330811 -0.305768579244613647 0.0966444686055183411
0.284434139728546143 0.334771066904067993 -0.108675345778465271
0.123559348285198212 -0.705934882164001465 0.127628505229949951
0.34009823203086853 0.723652064800262451 -0.0253053195774555206
0.254931837320327759 -0.765790879726409912 -0.153845101594924927
-0.111662149429321289 0.209644496440887451 0.127628505229949951
-0.264520764350891113 0.491584450006484985 0.127628505229949951
-0.243528902530670166 -0.305768579244613647 -0.0892969071865081787
-0.00596946757286787033 0.634689867496490479 0.127628505229949951
0.120298773050308228 -0.305768579244613647 -0.139310672879219055
0.278727173805236816 -0.206525713205337524 -0.116487972438335419
-0.15014629065990448 -0.199610292911529541 -0.0630505084991455078
0.0732634216547012329 -0.361793547868728638 0.109936244785785675
0.248572573065757751 -0.748098611831665039 -0.36611562967300415
-0.382911890745162964 -0.199610292911529541 0.0110657336190342903
-0.256386458873748779 -0.0780604854226112366 0.127628505229949951
-0.0832117125391960144 -0.305768579244613647 -0.135591015219688416
0.127568408846855164 0.848634779453277588 0.109936244785785675
0.28846701979637146 -0.725365042686462402 0.127628505229949951
0.21174253523349762 0.318410098552703857 0.127628505229949951
0.149403050541877747 0.404939174652099609 0.127628505229949951
0.0239538606256246567 0.29986649751663208 0.127628505229949951
0.292577028274536133 0.704578995704650879 0.118157222867012024
-0.2445097416639328 0.285746246576309204 0.0151433572173118591
0.277902513742446899 -0.731491923332214355 -0.12814919650554657
-0.148968324065208435 -0.305768579244613647 -0.30198967456817627
-0.0523499324917793274 -0.199610292911529541 0.0785913020372390747
-0.109997585415840149 0.653123974800109863 0.127628505229949951
0.0582620054483413696 -0.199610292911529541 -0.240302026271820068
-0.248105496168136597 0.736920952796936035 0.0283351708203554153
-0.175014853477478027 0.89943462610244751 0.109936244785785675
-0.260519325733184814 -0.765790879726409912 -0.27784767746925354
0.166489645838737488 -0.765790879726409912 -0.301003098487854004
0.222985044121742249 0.498064666986465454 0.0849486589431762695
0.251028478145599365 -0.543756425380706787 0.109936244785785675
-0.224554866552352905 -0.305768579244613647 -0.245489016175270081
-0.285552620887756348 0.661549627780914307 -0.126163899898529053
0.203766301274299622 0.272476315498352051 0.0594573058187961578
-0.212175339460372925 -0.305768579244613647 -0.283243238925933838
0.156483188271522522 0.272476315498352051 -0.0444507412612438202
-0.0693899616599082947 -0.765790879726409912 -0.200883403420448303
-0.275907069444656372 0.101222693920135498 -0.100449912250041962
0.309276998043060303 -0.21471618115901947 0.109936244785785675
0.276336997747421265 -0.254761099815368652 -0.101004138588905334
0.195332050323486328 0.212700337171554565 0.127628505229949951
-0.159818515181541443 -0.690424263477325439 0.109936244785785675
0.27685120701789856 0.488103896379470825 -0.116148777306079865
0.265432536602020264 0.169548273086547852 0.127628505229949951
0.292584657669067383 0.848822355270385742 -0.110606551170349121
0.238516584038734436 0.756670117378234863 0.109936244785785675
-0.2814616858959198 0.0531455613672733307 0.109936244785785675
0.323750585317611694 -0.305768579244613647 -0.181949973106384277
0.240011632442474365 -0.748098611831665039 0.0288303587585687637
0.362628966569900513 -0.305768579244613647 -0.0983351096510887146
0.280603170394897461 -0.00269086845219135284 0.109936244785785675
-0.120746821165084839 -0.748098611831665039 -0.0536249168217182159
0.289108872413635254 -0.199610292911529541 -0.223615542054176331
-0.0208543166518211365 -0.765790879726409912 -0.409008771181106567
-0.268586963415145874 0.196860253810882568 0.109936244785785675
-0.227537378668785095 0.518822252750396729 0.109936244785785675
0.096095845103263855 0.194759547710418701 0.127628505229949951
0.11063036322593689 -0.482804387807846069 0.109936244785785675
0.112373016774654388 -0.330071479082107544 0.127628505229949951
0.17925579845905304 0.606920719146728516 0.127628505229949951
0.344193965196609497 -0.199610292911529541 -0.162020027637481689
0.0382112674415111542 0.903706550598144531 0.109936244785785675
-0.254070520401000977 -0.488414198160171509 0.127628505229949951
-0.284485131502151489 0.482594043016433716 -0.102950863540172577
-0.0232784189283847809 0.0925660878419876099 0.127628505229949951
-0.102957442402839661 0.101894333958625793 0.127628505229949951
-0.211027860641479492 0.732378661632537842 0.127628505229949951
-0.0544784516096115112 0.285746246576309204 0.0613656565546989441
-0.0437574945390224457 0.449455976486206055 0.109936244785785675
0.281223118305206299 0.703132450580596924 -0.118462219834327698
-0.0838071629405021667 0.886268496513366699 0.109936244785785675
-0.274488180875778198 -0.170444130897521973 -0.104055024683475494
-0.0524960123002529144 0.576017618179321289 0.109936244785785675
-0.202601209282875061 -0.748098611831665039 -0.400961130857467651
-0.274392008781433105 -0.461772501468658447 -0.12797798216342926
-0.207558721303939819 -0.765790879726409912 0.0572861284017562866
0.347277402877807617 -0.305768579244613647 -0.00775211118161678314
-0.290412068367004395 -0.579666554927825928 -0.108182072639465332
0.0865801796317100525 -0.0269311331212520599 0.127628505229949951
0.0179584547877311707 -0.274535030126571655 0.127628505229949951
-0.13792102038860321 -0.0152039062231779099 0.109936244785785675
0.0523906834423542023 -0.224010348320007324 -0.314698666334152222
0.151317104697227478 -0.228239402174949646 -0.314698666334152222
-0.369752466678619385 -0.305768579244613647 -0.230108797550201416
0.118946544826030731 0.736920952796936035 0.0375150628387928009
-0.137562990188598633 -0.320735424757003784 0.127628505229949951
-0.198163613677024841 -0.748098611831665039 0.0200637374073266983
-0.110821299254894257 0.258746445178985596 0.109936244785785675
-0.291296720504760742 -0.339271396398544312 0.127179980278015137
0.317335128784179688 0.498064666986465454 -0.0392313338816165924
-0.358780413866043091 -0.199610292911529541 -0.0439831651747226715
0.200829505920410156 0.0997458621859550476 0.109936244785785675
0.323849618434906006 -0.199610292911529541 -0.0393875092267990112
-0.288293272256851196 0.872377753257751465 -0.0896097347140312195
0.256325960159301758 0.201295956969261169 0.109936244785785675
0.190200254321098328 -0.641328036785125732 0.109936244785785675
0.0149074727669358253 0.272476315498352051 0.0463683418929576874
-0.0372829027473926544 -0.765790879726409912 -0.0570140518248081207
-0.250979483127593994 -0.556982517242431641 0.127628505229949951
0.116466835141181946 0.511334598064422607 0.0910546183586120605
-0.0839610472321510315 -0.112136557698249817 0.127628505229949951
0.196868062019348145 0.498064666986465454 -0.0226999036967754364
0.112842492759227753 -0.748098611831665039 -0.371258854866027832
0.254370003938674927 0.723652064800262451 -0.0599213391542434692
0.0973928347229957581 0.508560597896575928 0.127628505229949951
0.19809173047542572 -0.765790879726409912 0.0431677550077438354
0.0672835484147071838 -0.125799745321273804 0.127628505229949951
-0.00995509419590234756 0.506369411945343018 0.127628505229949951
0.288944125175476074 -0.107928469777107239 -0.126228660345077515
-0.149887263774871826 -0.748098611831665039 -0.263008445501327515
0.174037352204322815 -0.491550058126449585 0.127628505229949951
0.126496165990829468 0.0422645285725593567 0.127628505229949951
-0.278921008110046387 -0.765790879726409912 -0.419445693492889404
0.0192473530769348145 0.490060806274414062 0.127628505229949951
0.198143154382705688 -0.765790879726409912 -0.13392283022403717
-0.0928352698683738708 -0.765790879726409912 -0.166482090950012207
0.277790158987045288 -0.702110588550567627 -0.128143683075904846
-0.268449842929840088 0.511334598064422607 0.0218959152698516846
-0.11097080260515213 0.892328798770904541 0.109936244785785675
0.121357694268226624 -0.305768579244613647 0.0957617089152336121
-0.0565644018352031708 -0.765790879726409912 -0.352477192878723145
-0.0454886294901371002 0.736920952796936035 0.102109529078006744
-0.290273994207382202 0.80012136697769165 0.127628505229949951
-0.148241743445396423 -0.748098611831665039 -0.369616150856018066
0.148092716932296753 -0.516533851623535156 0.127628505229949951
0.284412235021591187 0.477690786123275757 -0.0823265761137008667
0.0526915974915027618 -0.305768579244613647 -0.00759688718244433403
0.0537578575313091278 0.498064666986465454 -0.0147989112883806229
-0.270692437887191772 0.629362881183624268 0.109936244785785675
-0.098430342972278595 0.756980538368225098 0.127628505229949951
0.0955855250358581543 0.158325642347335815 0.127628505229949951
-0.291296720504760742 0.401535749435424805 -0.120582453906536102
-0.180738955736160278 -0.199610292911529541 -0.0909996703267097473
0.0286250375211238861 0.0695689097046852112 0.127628505229949951
0.180435657501220703 -0.765790879726409912 -0.0244311336427927017
-0.0832874178886413574 0.47334367036819458 0.109936244785785675
-0.272479861974716187 -0.715809941291809082 0.109936244785785675
0.119838833808898926 -0.765790879726409912 -0.313203632831573486
0.245910972356796265 0.950444042682647705 0.126931443810462952
-0.148060828447341919 -0.746967315673828125 0.127628505229949951
0.175939992070198059 0.180854961276054382 0.127628505229949951
-0.268173694610595703 0.429443031549453735 0.109936244785785675
0.109983772039413452 0.272476315498352051 0.0299883149564266205
0.0353353098034858704 -0.765790879726409912 -0.367932558059692383
0.165963053703308105 0.245636537671089172 0.127628505229949951
0.0592582710087299347 -0.199610292911529541 -0.0465457364916801453
0.0711933821439743042 -0.748098611831665039 -0.237548127770423889
-0.291296720504760742 -0.383438676595687866 0.0824165716767311096
0.142694294452667236 0.285746246576309204 0.0869579538702964783
0.380950659513473511 -0.199610292911529541 -0.261377215385437012
0.101016230881214142 0.386245131492614746 0.127628505229949951
-0.0649543851613998413 0.498064666986465454 0.0067233680747449398
0.0789596214890480042 0.806844353675842285 0.109936244785785675
0.101365715265274048 -0.199610292911529541 0.00191535928752273321
-0.27538713812828064 0.874040424823760986 -0.0390247032046318054
-0.285262197256088257 0.767538368701934814 -0.100577615201473236
0.0161201898008584976 -0.305768579244613647 0.0659851208329200745
0.206087946891784668 0.285746246576309204 -0.0351641848683357239
0.14607200026512146 0.350233078002929688 0.127628505229949951
-0.00733457738533616066 0.598760664463043213 0.127628505229949951
0.174876302480697632 -0.765790879726409912 -0.266686141490936279
0.165447860956192017 -0.199610292911529541 0.0477215088903903961
-0.334087997674942017 -0.211334660649299622 0.109936244785785675
-0.0541842915117740631 -0.403894424438476562 0.127628505229949951
-0.232162564992904663 -0.144145265221595764 0.127628505229949951
-0.33255767822265625 0.511334598064422607 0.101625792682170868
-0.118404224514961243 0.498064666986465454 -0.0806518122553825378
-0.130739957094192505 -0.45112040638923645 0.109936244785785675
0.328535735607147217 -0.305768579244613647 0.0273190997540950775
0.131676509976387024 -0.544738173484802246 0.109936244785785675
-0.289526462554931641 0.898393809795379639 0.061158057302236557
-0.0823894292116165161 0.58763432502746582 0.127628505229949951
0.202246487140655518 0.77773439884185791 0.109936244785785675
-0.0175211764872074127 -0.748098611831665039 -0.266624212265014648
-0.262933313846588135 -0.610163986682891846 0.109936244785785675
0.173281252384185791 0.511334598064422607 -0.052584085613489151
-0.0462141633033752441 0.285746246576309204 -0.0134714413434267044
0.314526885747909546 -0.305768579244613647 -0.0478560589253902435
0.286747217178344727 0.273726671934127808 -0.116406455636024475
-0.0726400688290596008 0.169283241033554077 0.127628505229949951
0.254281461238861084 -0.765790879726409912 -0.327416270971298218
0.191688656806945801 -0.694819986820220947 0.127628505229949951
0.10381876677274704 -0.765790879726409912 -0.166289553046226501
-0.220405831933021545 0.511334598064422607 0.0172869190573692322
0.211753010749816895 -0.0502293966710567474 0.127628505229949951
-0.290412068367004395 -0.206884711980819702 -0.107288360595703125
0.0468687452375888824 0.621774256229400635 0.127628505229949951
-0.161197394132614136 -0.765790879726409912 -0.436289459466934204
0.140258386731147766 0.698051154613494873 0.109936244785785675
0.286010175943374634 -0.397514164447784424 -0.0967377722263336182
0.268761664628982544 0.862974047660827637 0.127628505229949951
0.221485227346420288 -0.379244863986968994 0.127628505229949951
0.139706060290336609 -0.199610292911529541 0.00681097712367773056
0.213416635990142822 -0.420274466276168823 0.109936244785785675
0.316949456930160522 -0.251610040664672852 -0.314698666334152222
0.292227566242218018 0.873608052730560303 -0.0331415645778179169
-0.275705218315124512 0.53392714262008667 -0.12595134973526001
0.138345271348953247 -0.211457520723342896 0.109936244785785675
-0.122893229126930237 0.47029450535774231 0.109936244785785675
0.0384116247296333313 0.83339083194732666 0.109936244785785675
-0.155220940709114075 0.511334598064422607 -0.0385904610157012939
0.105737589299678802 -0.748098611831665039 -0.0808024555444717407
0.2622871994972229 0.308754056692123413 0.109936244785785675
0.284300863742828369 0.274219930171966553 0.07311287522315979
-0.0160926748067140579 0.498064666986465454 0.00442744838073849678
-0.380671203136444092 0.498064666986465454 -0.0317322015762329102
-0.246097162365913391 -0.748098611831665039 -0.171897992491722107
0.1328306645154953 -0.748098611831665039 -0.157393142580986023
0.0342654362320899963 0.431039035320281982 0.109936244785785675
0.0625402778387069702 -0.199610292911529541 -0.144724443554878235
0.169840693473815918 0.571331441402435303 0.109936244785785675
0.364221185445785522 0.285746246576309204 0.013538772240281105
0.00713886134326457977 -0.208490222692489624 -0.314698666334152222
0.0510806404054164886 0.511334598064422607 0.0996545776724815369
-0.0851850137114524841 -0.199610292911529541 -0.0366525836288928986
-0.0303761754184961319 -0.22414843738079071 0.109936244785785675
-0.389524459838867188 0.272476315498352051 0.106119550764560699
-0.209401383996009827 -0.0337931923568248749 0.109936244785785675
-0.17166002094745636 0.338710606098175049 0.109936244785785675
-0.255482763051986694 -0.199610292911529541 0.0934743434190750122
0.272764086723327637 0.511334598064422607 0.0950255915522575378
-0.27746880054473877 -0.524155855178833008 -0.101221255958080292
0.255589842796325684 0.698174953460693359 0.109936244785785675
0.00345969456247985363 -0.765790879726409912 -0.150196671485900879
-0.289654076099395752 -0.383073002099990845 -0.0275117289274930954
-0.291296720504760742 -0.348501741886138916 -0.126917630434036255
-0.0690991431474685669 -0.305768579244613647 -0.0563626997172832489
0.305424124002456665 0.498064666986465454 0.0815461874008178711
-0.162147775292396545 0.272476315498352051 0.0425982996821403503
-0.28105694055557251 -0.305768579244613647 0.0943361595273017883
0.3568267822265625 -0.234576746821403503 -0.314698666334152222
0.229194805026054382 0.153301656246185303 0.109936244785785675
0.274891436100006104 -0.352975517511367798 -0.109700471162796021
-0.247594147920608521 -0.765790879726409912 -0.448036700487136841
0.274891436100006104 -0.0782480761408805847 -0.105966992676258087
-0.36006501317024231 0.498064666986465454 -0.0943555682897567749
0.171439558267593384 0.736920952796936035 -0.0193402897566556931
-0.121954299509525299 -0.765790879726409912 -0.321587413549423218
-0.217362359166145325 0.285746246576309204 0.0376360006630420685
0.290605813264846802 -0.498557776212692261 -0.128105863928794861
-0.0393723770976066589 0.247058317065238953 0.109936244785785675
-0.114200912415981293 -0.214424803853034973 0.127628505229949951
-0.117370061576366425 0.170030683279037476 0.127628505229949951
-0.146361961960792542 -0.489455044269561768 0.109936244785785675
-0.291296720504760742 -0.383038729429244995 0.036033332347869873
-0.232916757464408875 0.333983540534973145 0.109936244785785675
0.156784102320671082 -0.158624529838562012 0.109936244785785675
0.0671159401535987854 -0.305768579244613647 -0.0861050859093666077
-0.148580759763717651 -0.748098611831665039 -0.132527083158493042
0.0846977308392524719 0.511334598064422607 -0.0958626344799995422
-0.139086619019508362 0.522566556930541992 0.127628505229949951
0.276487439870834351 -0.407953947782516479 0.0640482082962989807
-0.136269792914390564 0.723652064800262451 -0.00592850381508469582
-0.0543777942657470703 0.279898345470428467 0.127628505229949951
-0.240152150392532349 -0.765790879726409912 -0.127701535820960999
-0.172065675258636475 -0.765790879726409912 -0.101387806236743927
-0.279621899127960205 0.0529187284409999847 -0.127122178673744202
0.0832160934805870056 0.950371623039245605 0.127628505229949951
-0.311934351921081543 0.511334598064422607 0.0346620567142963409
-0.182538747787475586 -0.199610292911529541 -0.136461853981018066
0.236070215702056885 -0.305768579244613647 0.0638548955321311951
-0.397455930709838867 -0.287573516368865967 -0.291887998580932617
-0.294791579246520996 -0.305768579244613647 -0.144510373473167419
0.278192967176437378 -0.0276348553597927094 -0.12801826000213623
0.0190967041999101639 -0.603685736656188965 0.127628505229949951
-0.0844716578722000122 -0.272145777940750122 0.109936244785785675
0.14054502546787262 -0.0505274571478366852 0.109936244785785675
0.266475260257720947 -0.512184798717498779 0.109936244785785675
0.10830206423997879 -0.615862429141998291 0.109936244785785675
-0.000912316609174013138 -0.256862759590148926 0.0969882309436798096
-0.397455930709838867 -0.249842628836631775 -0.176676571369171143
0.38104209303855896 0.499703496694564819 0.029890233650803566
-0.121869541704654694 -0.595944702625274658 0.109936244785785675
-0.291296720504760742 0.117378935217857361 0.116162203252315521
-0.155793264508247375 0.432609319686889648 0.127628505229949951
0.234260886907577515 -0.765790879726409912 0.122162476181983948
0.299379080533981323 -0.199610292911529541 0.0432067923247814178
0.244805365800857544 0.440830260515213013 0.127628505229949951
-0.180945605039596558 -0.239678055047988892 0.127628505229949951
-0.169643104076385498 0.705346524715423584 0.127628505229949951
-0.288076132535934448 -0.182003751397132874 0.127628505229949951
-0.146590515971183777 -0.765790879726409912 0.0543674156069755554
0.0400148667395114899 0.285746246576309204 0.019494280219078064
0.0604483336210250854 0.0458331629633903503 0.127628505229949951
-0.00976645015180110931 0.410550892353057861 0.127628505229949951
0.12648281455039978 0.723652064800262451 -0.0931556150317192078
0.210860729217529297 0.429791569709777832 0.127628505229949951
0.273099273443222046 -0.199610292911529541 0.0941761508584022522
-0.0989074259996414185 0.699226260185241699 0.127628505229949951
-0.261805832386016846 -0.765790879726409912 -0.234861493110656738
-0.0943108126521110535 0.382516980171203613 0.109936244785785675
-0.274530082941055298 0.717482268810272217 -0.125245541334152222
-0.0334884822368621826 0.778198122978210449 0.109936244785785675
0.00914166029542684555 -0.765790879726409912 -0.328796118497848511
0.162453919649124146 -0.584501266479492188 0.127628505229949951
0.326922595500946045 -0.305768579244613647 -0.228916466236114502
0.170453950762748718 -0.765790879726409912 -0.203215047717094421
0.27216985821723938 -0.238704860210418701 -0.314698666334152222
0.221169069409370422 0.736920952796936035 -0.0741821750998497009
-0.177286982536315918 0.723652064800262451 0.0405185334384441376
0.0914577096700668335 0.0684279948472976685 0.109936244785785675
0.143763691186904907 0.142156556248664856 0.127628505229949951
0.144605502486228943 0.667889833450317383 0.127628505229949951
0.0623488686978816986 0.736920952796936035 0.0856190472841262817
-0.19055020809173584 -0.765790879726409912 -0.316175669431686401
-0.289795011281967163 0.898428142070770264 0.0875569358468055725
-0.0667295157909393311 0.905829131603240967 0.127628505229949951
-0.174697756767272949 -0.748098611831665039 -0.23214113712310791
-0.140236005187034607 0.368782401084899902 0.109936244785785675
0.107514537870883942 -0.415421664714813232 0.109936244785785675
0.286874830722808838 0.400980561971664429 -0.100411340594291687
-0.287353366613388062 0.368445277214050293 0.127628505229949951
-0.268754571676254272 0.736920952796936035 -0.0145446555688977242
0.358464688062667847 0.511334598064422607 -0.0285754222422838211
0.289938300848007202 -0.39185294508934021 0.0398376584053039551
0.274891436100006104 0.237588897347450256 -0.102645657956600189
-0.364195972681045532 -0.199610292911529541 -0.29244697093963623
-0.170803919434547424 0.237864121794700623 0.109936244785785675
0.303952842950820923 0.723652064800262451 0.0217978339642286301
-0.0228010453283786774 -0.437447696924209595 0.127628505229949951
-0.2192973792552948 0.723652064800262451 0.0994660258293151855
-0.0870366990566253662 -0.765790879726409912 -0.233371376991271973
0.145697757601737976 -0.305768579244613647 -0.191273748874664307
-0.0050594680942595005 -0.765790879726409912 -0.0489778369665145874
0.0862041264772415161 0.285746246576309204 -0.0533744730055332184
-0.013944731093943119 0.272476315498352051 -0.0060618184506893158
0.289038389921188354 0.364843785762786865 -0.126108676195144653
0.233010575175285339 -0.613200843334197998 0.109936244785785675
-0.275127172470092773 0.302774757146835327 -0.102073825895786285
0.141801059246063232 -0.748098611831665039 -0.189893156290054321
-0.277832567691802979 -0.381300806999206543 0.013104545883834362
-0.127887889742851257 0.272476315498352051 0.0179430339485406876
-0.284901291131973267 -0.131442919373512268 -0.108993411064147949
0.292491316795349121 0.916112720966339111 0.109936244785785675
-0.0525439083576202393 0.510417520999908447 0.127628505229949951
-0.25717589259147644 -0.126734882593154907 0.109936244785785675
-0.211520180106163025 0.784988760948181152 0.127628505229949951
-0.0835742354393005371 0.0404028370976448059 0.127628505229949951
-0.307235836982727051 -0.305768579244613647 -0.0456763096153736115
0.290277302265167236 -0.458602398633956909 -0.103036567568778992
-0.244766861200332642 0.704461812973022461 0.127628505229949951
0.281703054904937744 0.497074246406555176 0.0277152415364980698
-0.271804690361022949 0.285746246576309204 -0.0157197527587413788
0.22102336585521698 0.736920952796936035 0.010382005013525486
-0.0355604365468025208 -0.748098611831665039 0.0100353732705116272
-0.123965494334697723 0.924269914627075195 0.109936244785785675
-0.169569775462150574 -0.269867956638336182 0.109936244785785675
0.116478264331817627 -0.765790879726409912 -0.228163212537765503
-0.19257664680480957 0.510759413242340088 -0.102381311357021332
0.280074656009674072 0.76169431209564209 -0.101614534854888916
-0.211942046880722046 -0.428929626941680908 0.127628505229949951
-0.120202124118804932 0.285746246576309204 -0.0440526828169822693
0.120994888246059418 0.639303624629974365 0.127628505229949951
0.226700812578201294 0.393801391124725342 0.109936244785785675
-0.00754915224388241768 -0.729843556880950928 0.127628505229949951
-0.143569901585578918 -0.305768579244613647 -0.197879955172538757
-0.037508498877286911 0.511334598064422607 0.097850017249584198
-0.246440932154655457 -0.765790879726409912 0.0782151594758033752
0.151630401611328125 -0.284727185964584351 0.109936244785785675
0.121400550007820129 0.756735861301422119 0.109936244785785675
0.342367500066757202 -0.199610292911529541 -0.092687852680683136
0.275776088237762451 0.185596033930778503 -0.120361998677253723
0.206649795174598694 -0.765790879726409912 -0.277492493391036987
0.0940032303333282471 -0.765790879726409912 -0.0109536470845341682
0.0488690845668315887 0.285746246576309204 0.0609171390533447266
0.0247088205069303513 0.326934814453125 0.109936244785785675
0.0917292013764381409 -0.199610292911529541 -0.158593013882637024
0.38104209303855896 0.278617531061172485 -0.0571349933743476868
-0.289456933736801147 0.255653500556945801 0.109936244785785675
0.00443800073117017746 -0.765790879726409912 0.0376017205417156219
-0.368543088436126709 0.272476315498352051 0.0309272501617670059
0.0921675339341163635 -0.727351486682891846 0.109936244785785675
0.274891436100006104 -0.405144721269607544 -0.125441804528236389
-0.0438147261738777161 0.917258322238922119 0.109936244785785675
-0.291296720504760742 0.557543516159057617 0.116098403930664062
0.277952998876571655 -0.189826667308807373 -0.126249417662620544
-0.0405880473554134369 -0.64352869987487793 0.127628505229949951
-0.266725271940231323 -0.426015704870223999 0.109936244785785675
0.150571480393409729 -0.199610292911529541 -0.175056755542755127
0.227676898241043091 -0.7068328857421875 0.109936244785785675
-0.192556649446487427 0.143698662519454956 0.127628505229949951
0.246587082743644714 0.614107489585876465 0.127628505229949951
-0.0169648602604866028 -0.0547936372458934784 0.127628505229949951
0.301785469055175781 -0.305768579244613647 -0.254684627056121826
0.264563113451004028 -0.167859658598899841 0.127628505229949951
-0.246555224061012268 -0.305768579244613647 -0.0575416125357151031
-0.190913990139961243 -0.305768579244613647 -0.0292982012033462524
0.375735074281692505 -0.221804887056350708 0.109936244785785675
-0.029448850080370903 -0.199610292911529541 -0.298126280307769775
-0.287949472665786743 0.921900629997253418 0.127628505229949951
-0.0311083775013685226 -0.296150624752044678 0.109936244785785675
0.0523210689425468445 -0.765790879726409912 0.108817338943481445
0.289818316698074341 0.511334598064422607 -0.03029618039727211
0.0965253189206123352 0.59441453218460083 0.127628505229949951
-0.0914858058094978333 -0.765790879726409912 -0.420468389987945557
-0.113061986863613129 -0.748098611831665039 0.0546550005674362183
0.113772861659526825 0.442357718944549561 0.127628505229949951
-0.150400549173355103 -0.765790879726409912 -0.339000672101974487
0.0829708799719810486 0.736920952796936035 0.00913167186081409454
0.292577028274536133 -0.232035160064697266 -0.110893376171588898
-0.00508810253813862801 -0.748098611831665039 -0.387883603572845459
0.292584657669067383 0.599806249141693115 -0.109189003705978394
-0.327624917030334473 -0.199610292911529541 -0.30357709527015686
-0.178026884794235229 0.0956412777304649353 0.127628505229949951
0.107211709022521973 0.25847315788269043 0.109936244785785675
-0.0376908555626869202 -0.765790879726409912 -0.201691597700119019
-0.26424938440322876 0.355869591236114502 0.109936244785785675
0.0140247168019413948 0.723652064800262451 -0.0542686581611633301
0.0783752202987670898 0.876837253570556641 0.109936244785785675
-0.109360508620738983 0.511334598064422607 -0.0371963419020175934
-0.023602096363902092 -0.199610292911529541 0.0654185190796852112
0.139508932828903198 -0.765790879726409912 -0.0825380682945251465
0.153251171112060547 -0.765790879726409912 -0.336729466915130615
0.279985159635543823 0.87234729528427124 -0.0675109401345252991
0.369379609823226929 -0.305768579244613647 -0.132872089743614197
0.102747462689876556 -0.748098611831665039 -0.284813553094863892
-0.0553976744413375854 0.643934488296508789 0.127628505229949951
-0.196395248174667358 0.0366330817341804504 0.109936244785785675
-0.373384416103363037 0.725348055362701416 0.109936244785785675
0.197820335626602173 -0.252690881490707397 0.127628505229949951
0.00735063757747411728 0.945058882236480713 0.127628505229949951
-0.181636959314346313 0.285746246576309204 -0.015369318425655365
0.310667335987091064 0.285746246576309204 0.0140015771612524986
0.178007379174232483 0.498064666986465454 0.00246385764330625534
0.275776088237762451 -0.656538665294647217 -0.125419050455093384
0.281703054904937744 0.272793442010879517 -0.0104584610089659691
-0.134625226259231567 -0.199610292911529541 -0.156583264470100403
0.0671740323305130005 -0.765790879726409912 -0.041054941713809967
0.292577028274536133 -0.520184874534606934 0.126766696572303772
-0.381473958492279053 -0.200449258089065552 0.109936244785785675
-0.291296720504760742 -0.0833103582262992859 -0.126403778791427612
-0.0488863289356231689 0.350965380668640137 0.127628505229949951
-0.125497698783874512 -0.199610292911529541 -0.0340747945010662079
-0.199599653482437134 0.666282415390014648 0.109936244785785675
0.0451093278825283051 -0.361475467681884766 0.127628505229949951
-0.200134828686714172 -0.199610292911529541 0.106414757668972015
0.321967929601669312 0.285746246576309204 -0.0417339019477367401
-0.134860441088676453 -0.38044854998588562 0.109936244785785675
-0.179415300488471985 0.736920952796936035 -0.0750027522444725037
-0.0276095401495695114 -0.305768579244613647 -0.00899290852248668671
-0.0259661097079515457 0.736920952796936035 0.0728767141699790955
0.24407118558883667 -0.199610292911529541 -0.179484337568283081
0.168537989258766174 -0.199610292911529541 -0.220542192459106445
-0.26834985613822937 0.285746246576309204 -0.0498072691261768341
-0.0405001528561115265 -0.464317947626113892 0.109936244785785675
0.289579302072525024 0.630334198474884033 0.109936244785785675
-0.223595932126045227 -0.338525772094726562 0.109936244785785675
0.195087313652038574 0.820753216743469238 0.109936244785785675
0.0750257968902587891 -0.606951057910919189 0.127628505229949951
0.076722167432308197 -0.765790879726409912 -0.18777291476726532
0.156630784273147583 -0.26096421480178833 0.127628505229949951
0.181954532861709595 0.869302928447723389 0.109936244785785675
0.186124533414840698 -0.305768579244613647 -0.077258966863155365
0.352219671010971069 -0.305768579244613647 -0.0432184971868991852
-0.259640365839004517 -0.199610292911529541 0.0195085685700178146
-0.289230287075042725 0.696591317653656006 -0.101578257977962494
-0.140933066606521606 0.636709630489349365 0.109936244785785675
-0.212142005562782288 -0.748098611831665039 -0.341824114322662354
-0.100014917552471161 -0.199610292911529541 -0.162233218550682068
-0.042470879852771759 -0.199610292911529541 -0.0364278554916381836
0.120435900986194611 -0.387287765741348267 0.109936244785785675
-0.0490971654653549194 -0.199610292911529541 -0.112938284873962402
-0.200801417231559753 -0.0826818570494651794 0.127628505229949951
-0.0893862321972846985 0.296976357698440552 0.109936244785785675
-0.0582993440330028534 0.498064666986465454 0.0676992088556289673
0.093502335250377655 -0.311787873506546021 0.109936244785785675
-0.161362141370773315 0.574540615081787109 0.127628505229949951
0.280458420515060425 -0.39185294508934021 0.099954552948474884
-0.0390451774001121521 -0.305768579244613647 0.0798073559999465942
-0.273603528738021851 -0.383447259664535522 -0.0985817462205886841
-0.242205232381820679 -0.199610292911529541 -0.144655868411064148
-0.287715226411819458 -0.765790879726409912 -0.164293065667152405
-0.291894733905792236 0.895204663276672363 0.0310758035629987717
0.0199168957769870758 -0.697882473468780518 0.127628505229949951
-0.179481968283653259 0.933490753173828125 0.109936244785785675
-0.276768893003463745 0.23513871431350708 -0.12602725625038147
-0.013211958110332489 0.707533836364746094 0.109936244785785675
0.0471489988267421722 -0.702345788478851318 0.109936244785785675
0.254210978746414185 -0.251574814319610596 0.127628505229949951
-0.287781894207000732 -0.410021305084228516 -0.116293802857398987
-0.0728185251355171204 0.272476315498352051 -0.00589136872440576553
0.0878586918115615845 -0.765790879726409912 -0.217130199074745178
-0.171555265784263611 -0.612345695495605469 0.127628505229949951
0.00118847296107560396 -0.199610292911529541 -0.147791042923927307
-0.100865297019481659 -0.305768579244613647 -0.107933901250362396
-0.120595410466194153 0.511334598064422607 0.00995823647826910019
0.112537764012813568 0.906107187271118164 0.109936244785785675
-0.320998072624206543 -0.199610292911529541 -0.187094703316688538
-0.108645349740982056 0.131373509764671326 0.109936244785785675
-0.0510634146630764008 0.511334598064422607 -0.0460972152650356293
-0.24747699499130249 0.498064666986465454 0.0892186388373374939
-0.152908831834793091 0.498064666986465454 0.00878123752772808075
0.0583632327616214752 -0.305768579244613647 -0.158935725688934326
0.0389681309461593628 -0.483124345541000366 0.127628505229949951
0.0500454269349575043 0.194940477609634399 0.109936244785785675
0.0838651582598686218 0.925611615180969238 0.109936244785785675
0.292577028274536133 -0.761230409145355225 -0.0716622695326805115
-0.0548096522688865662 -0.765790879726409912 -0.290542423725128174
-0.357595771551132202 0.723652064800262451 -0.0528897643089294434
-0.338069438934326172 0.723652064800262451 -0.0820778384804725647
-0.263040930032730103 -0.665575683116912842 0.127628505229949951
0.00501278229057788849 -0.542343258857727051 0.109936244785785675
-0.129380106925964355 -0.748098611831665039 -0.237418621778488159
0.0618976876139640808 -0.655466437339782715 0.109936244785785675
-0.285404056310653687 0.202902421355247498 -0.111159346997737885
0.249208688735961914 -0.305768579244613647 0.0983966439962387085
0.280107051134109497 -0.199610292911529541 0.0149452798068523407
0.194171220064163208 -0.44463735818862915 0.127628505229949951
-0.0318290553987026215 0.272476315498352051 0.0462588220834732056
-0.127465099096298218 0.285746246576309204 -0.0837805941700935364
-0.370230495929718018 -0.305768579244613647 -0.0497682243585586548
-0.0907443687319755554 -0.723475754261016846 0.109936244785785675
-0.144347906112670898 0.796319842338562012 0.109936244785785675
0.292577028274536133 -0.278759270906448364 -0.126307219266891479
0.2442149817943573 -0.334516674280166626 0.109936244785785675
0.133551523089408875 -0.765790879726409912 -0.253144919872283936
0.262715697288513184 -0.205207750201225281 0.127628505229949951
0.291699975728988647 0.0629234835505485535 -0.104449070990085602
0.276569336652755737 0.873852849006652832 0.0235500093549489975
0.111417889595031738 -0.267173945903778076 0.109936244785785675
-0.115691207349300385 -0.341542541980743408 0.127628505229949951
0.0642356052994728088 0.702291607856750488 0.127628505229949951
0.0218470543622970581 -0.0861766934394836426 0.127628505229949951
0.291699975728988647 -0.315261751413345337 -0.106352277100086212
0.180706113576889038 -0.673028230667114258 0.109936244785785675
0.0678291916847229004 -0.305768579244613647 -0.260019272565841675
-0.244016468524932861 -0.765790879726409912 -0.331090152263641357
0.0346041545271873474 -0.765790879726409912 -0.184672310948371887
-0.0516254454851150513 -0.747918605804443359 0.109936244785785675
0.181368887424468994 -0.227259501814842224 -0.314698666334152222
-0.159760430455207825 0.498064666986465454 0.0869198665022850037
-0.234505161643028259 -0.263926714658737183 0.109936244785785675
-0.0733103752136230469 0.444315612316131592 0.109936244785785675
0.291205763816833496 -0.474049180746078491 -0.128101304173469543
0.190175503492355347 -0.199610292911529541 -0.0345852039754390717
0.311325341463088989 0.272476315498352051 0.108930662274360657
0.169479787349700928 -0.765790879726409912 -0.0820794552564620972
0.0762596502900123596 -0.305768579244613647 -0.304428458213806152
-0.207642540335655212 0.627387881278991699 0.127628505229949951
-0.107303604483604431 0.0112341968342661858 0.109936244785785675
-0.127749830484390259 0.950444042682647705 0.123934634029865265
-0.223770201206207275 -0.305768579244613647 0.0250222161412239075
-0.397455930709838867 -0.266730219125747681 0.0231338590383529663
-0.231296002864837646 0.646721780300140381 0.109936244785785675
0.263348966836929321 0.231828615069389343 0.109936244785785675
-0.287382900714874268 -0.407840639352798462 0.0216797441244125366
-0.071743696928024292 -0.0823038071393966675 0.127628505229949951
-0.135483220219612122 0.759477436542510986 0.109936244785785675
-0.181405559182167053 -0.581998646259307861 0.127628505229949951
0.228555843234062195 -0.765790879726409912 0.0497755594551563263
0.227472156286239624 -0.219397559762001038 0.127628505229949951
-0.228691533207893372 -0.173751384019851685 0.127628505229949951
0.38104209303855896 -0.299443572759628296 -0.192878901958465576
-0.233223393559455872 -0.439632207155227661 0.109936244785785675
-0.351199358701705933 0.498064666986465454 -0.0351137258112430573
-0.224612966179847717 0.113908477127552032 0.127628505229949951
-0.0298540461808443069 0.484385251998901367 0.127628505229949951
0.256035536527633667 0.922591030597686768 0.127628505229949951
0.292577028274536133 -0.757898449897766113 -0.0164244398474693298
0.292123734951019287 0.785017311573028564 -0.127751722931861877
-0.251216590404510498 0.0835643857717514038 0.127628505229949951
0.143199950456619263 -0.765790879726409912 -0.429335981607437134
0.185229390859603882 -0.765790879726409912 0.0800787508487701416
-0.195865795016288757 -0.765790879726409912 -0.181607425212860107
-0.0844909921288490295 -0.544397294521331787 0.127628505229949951
0.0859389230608940125 -0.233920633792877197 -0.314698666334152222
0.38104209303855896 -0.225872993469238281 -0.247806176543235779
0.121670998632907867 -0.199610292911529541 -0.299883246421813965
-0.10601518303155899 0.621250450611114502 0.127628505229949951
0.292541801929473877 -0.305768579244613647 -0.161554470658302307
-0.0168635379523038864 -0.503602921962738037 0.109936244785785675
0.107338361442089081 0.137809053063392639 0.109936244785785675
0.222274661064147949 -0.199610292911529541 -0.114973291754722595
-0.0151286907494068146 0.498064666986465454 -0.035141337662935257
0.154888138175010681 -0.11277172714471817 0.109936244785785675
0.268322676420211792 0.343774795532226562 0.109936244785785675
0.0386748313903808594 -0.765790879726409912 -0.248515933752059937
0.148330792784690857 0.315897047519683838 0.109936244785785675
-0.279600948095321655 0.637840926647186279 -0.126590907573699951
0.225961863994598389 -0.199610292911529541 0.0114133022725582123
0.28612634539604187 0.712287604808807373 -0.00566662847995758057
0.0312645398080348969 0.692520380020141602 0.109936244785785675
-0.22975999116897583 -0.486451596021652222 0.109936244785785675
0.193940773606300354 -0.503897190093994141 0.109936244785785675
-0.147360906004905701 0.736920952796936035 0.0746174678206443787
0.0827868059277534485 -0.765790879726409912 0.111181840300559998
-0.14356037974357605 0.168130725622177124 0.109936244785785675
0.0492436140775680542 -0.418454617261886597 0.109936244785785675
-0.289656907320022583 -0.396301001310348511 -0.0819506123661994934
-0.14655052125453949 -0.0825171098113059998 0.109936244785785675
-0.170977219939231873 -0.053936593234539032 0.127628505229949951
-0.163890421390533447 -0.199610292911529541 0.0489499457180500031
0.0614689737558364868 -0.748098611831665039 -0.417053550481796265
0.257987678050994873 0.0287337042391300201 0.109936244785785675
0.292584657669067383 -0.179105058312416077 -0.106899268925189972
0.260035067796707153 -0.62484133243560791 0.109936244785785675
-0.0789749547839164734 -0.0296746175736188889 0.109936244785785675
-0.0617517083883285522 0.497635155916213989 0.109936244785785675
-0.159883260726928711 -0.438627570867538452 0.109936244785785675
-0.0271659716963768005 -0.691942214965820312 0.109936244785785675
-0.226877465844154358 -0.199610292911529541 -0.18266567587852478
0.0722400173544883728 -0.765790879726409912 -0.331762433052062988
0.134499043226242065 -0.639218807220458984 0.109936244785785675
0.135107547044754028 -0.359054803848266602 0.109936244785785675
-0.134709969162940979 -0.199610292911529541 -0.264284491539001465
0.0121868327260017395 -0.765790879726409912 -0.279929369688034058
-0.246464744210243225 -0.748098611831665039 -0.105398587882518768
0.0611678622663021088 -0.289748519659042358 0.109936244785785675
-0.270470559597015381 0.874362289905548096 0.109936244785785675
-0.291296720504760742 -0.0199109818786382675 0.117008775472640991
-0.199987232685089111 0.831816673278808594 0.109936244785785675
0.267040908336639404 -0.748098611831665039 -0.173490896821022034
0.235219836235046387 -0.305768579244613647 -0.0323845148086547852
0.233199119567871094 0.275158852338790894 0.127628505229949951
0.13556082546710968 0.736920952796936035 -0.024980597198009491
0.0393691323697566986 -0.765790879726409912 0.0350934453308582306
-0.290940582752227783 0.875727832317352295 0.012433190830051899
0.242351382970809937 -0.173691391944885254 0.109936244785785675
0.160094201564788818 0.511334598064422607 0.067104041576385498
0.030491391196846962 -0.762649297714233398 0.127628505229949951
-0.150107249617576599 -0.205065876245498657 0.109936244785785675
0.239161267876625061 -0.199610292911529541 0.0447561368346214294
0.291699975728988647 0.546253383159637451 -0.120033092796802521
-0.185580313205718994 -0.313707649707794189 0.109936244785785675
0.139722257852554321 0.600931882858276367 0.127628505229949951
-0.199070185422897339 0.493645161390304565 0.109936244785785675
0.0289985183626413345 0.462831556797027588 0.127628505229949951
-0.166886270046234131 -0.228268921375274658 -0.314698666334152222
-0.0132177677005529404 0.762291371822357178 0.127628505229949951
0.234279945492744446 -0.765790879726409912 -0.435190528631210327
-0.287680953741073608 -0.716580331325531006 -0.128030836582183838
-0.16650061309337616 0.268261551856994629 0.127628505229949951
0.205043300986289978 0.62240368127822876 0.127628505229949951
0.107408829033374786 0.838013172149658203 0.127628505229949951
-0.189394161105155945 -0.6984824538230896 0.127628505229949951
-0.397455930709838867 -0.230093464255332947 -0.034563310444355011
0.278462469577789307 0.0390723235905170441 -0.100642077624797821
0.0407351665198802948 0.222536355257034302 0.127628505229949951
-0.220888629555702209 -0.568433582782745361 0.109936244785785675
0.208822861313819885 0.710155487060546875 0.109936244785785675
-0.265873968601226807 -0.765790879726409912 -0.393840044736862183
0.341761857271194458 0.723652064800262451 0.00337137584574520588
0.230739399790763855 0.581030368804931641 0.127628505229949951
0.147863209247589111 -0.765790879726409912 -0.38814738392829895
-0.0388871990144252777 0.272476315498352051 -0.0647436454892158508
0.198461204767227173 0.300135046243667603 0.109936244785785675
-0.179698124527931213 -0.765790879726409912 -0.274365216493606567
-0.187770530581474304 0.724359571933746338 0.109936244785785675
0.207837283611297607 0.524140715599060059 0.127628505229949951
-0.116974875330924988 -0.760751426219940186 0.127628505229949951
-0.0711474791169166565 0.387604027986526489 0.127628505229949951
-0.296369493007659912 -0.199610292911529541 -0.243338704109191895
0.199887707829475403 0.736920952796936035 0.0638053789734840393
-0.308371931314468384 0.723652064800262451 -0.0413787141442298889
-0.261369705200195312 0.793381094932556152 0.127628505229949951
-0.291296720504760742 -0.0333208665251731873 -0.101693764328956604
0.0467818044126033783 -0.229439243674278259 0.109936244785785675
0.210836932063102722 0.667535603046417236 0.109936244785785675
-0.14921116828918457 -0.748098611831665039 -0.102768406271934509
0.239763110876083374 0.728176236152648926 0.109936244785785675
0.179926201701164246 -0.765790879726409912 -0.176314517855644226
0.00448909075930714607 0.220073774456977844 0.109936244785785675
0.38104209303855896 -0.257688373327255249 0.0907993987202644348
-0.253462046384811401 0.498064666986465454 -0.0768323466181755066
-0.00892235618084669113 0.528693497180938721 0.109936244785785675
0.133165866136550903 -0.765790879726409912 0.118300057947635651
-0.28998449444770813 0.777822911739349365 0.109936244785785675
0.0295611191540956497 -0.157440856099128723 0.127628505229949951
-0.113453373312950134 -0.199610292911529541 -0.193350940942764282
0.000507967546582221985 -0.282473146915435791 0.0707360059022903442
-0.273603528738021851 -0.340154141187667847 -0.105675600469112396
0.177122712135314941 0.949433684349060059 0.127628505229949951
-0.262968569993972778 0.950444042682647705 0.110401906073093414
0.28612634539604187 0.711677193641662598 0.046040751039981842
0.217483788728713989 -0.748098611831665039 -0.227818295359611511
0.122436627745628357 -0.765790879726409912 0.0142377410084009171
0.202440753579139709 0.736920952796936035 -0.0429090149700641632
0.148520290851593018 0.039574839174747467 0.109936244785785675
-0.284485131502151489 0.496787607669830322 0.0501469410955905914
0.187408193945884705 -0.0890716016292572021 0.109936244785785675
0.0358428731560707092 0.143813222646713257 0.109936244785785675
0.168652251362800598 -0.765790879726409912 0.0110200140625238419
-0.22457963228225708 0.86605757474899292 0.109936244785785675
-0.186992526054382324 -0.742846846580505371 0.109936244785785675
-0.0295539833605289459 -0.263257265090942383 0.109936244785785675
-0.374016761779785156 0.285746246576309204 -0.0399760082364082336
-0.223634019494056702 0.424074113368988037 0.127628505229949951
0.286785304546356201 -0.233783528208732605 0.109936244785785675
0.244763478636741638 0.498064666986465454 0.00200582016259431839
0.279763281345367432 -0.396394312381744385 -0.011752597987651825
-0.199226364493370056 0.276363492012023926 0.109936244785785675
-0.375106126070022583 0.511334598064422607 0.0866894200444221497
-0.255733191967010498 -0.748098611831665039 -0.0373744107782840729
0.239340305328369141 0.503167867660522461 0.109936244785785675
-0.290412068367004395 -0.107921816408634186 -0.107086867094039917
-0.311906754970550537 0.736920952796936035 0.093689553439617157
0.058065362274646759 -0.765790879726409912 0.00527210533618927002
-0.0303248465061187744 -0.305768579244613647 -0.147540971636772156
-0.0707439035177230835 0.736920952796936035 0.0178192406892776489
0.0953205078840255737 -0.748098611831665039 -0.106953352689743042
-0.273603528738021851 0.503392636775970459 -0.118825703859329224
-0.397455930709838867 -0.212762117385864258 -0.10815921425819397
-0.12575957179069519 0.577949762344360352 0.109936244785785675
-0.241507232189178467 -0.38358151912689209 0.127628505229949951
-0.393813520669937134 0.272476315498352051 0.0497308038175106049
-0.296598970890045166 0.511334598064422607 -0.0725867375731468201
-0.0381993725895881653 0.723652064800262451 -0.0319797880947589874
0.225609511137008667 -0.734846770763397217 0.109936244785785675
-0.291296720504760742 0.348902761936187744 -0.1048087477684021
-0.0632306784391403198 0.195741355419158936 0.127628505229949951
0.283032417297363281 -0.276580512523651123 0.127628505229949951
0.103644505143165588 0.272476315498352051 -0.0794428065419197083
0.277719706296920776 -0.5449715256690979 -0.116488255560398102
0.292584657669067383 0.506489396095275879 -0.119710072875022888
-0.138665720820426941 -0.150610223412513733 0.127628505229949951
0.170138746500015259 -0.649619460105895996 0.127628505229949951
-0.268668860197067261 0.723652064800262451 0.0100934673100709915
-0.180520907044410706 0.841317534446716309 0.127628505229949951
-0.194509759545326233 -0.385074704885482788 0.109936244785785675
0.202175065875053406 -0.765790879726409912 -0.0489340312778949738
0.0934638604521751404 -0.199610292911529541 0.104104548692703247
-0.201398491859436035 0.272476315498352051 -0.0776143521070480347
-0.245971471071243286 -0.105269730091094971 0.127628505229949951
-0.247996017336845398 0.613165676593780518 0.109936244785785675
0.38104209303855896 -0.295354515314102173 0.0989832282066345215
-0.173133179545402527 0.0593307539820671082 0.127628505229949951
-0.152674570679664612 0.272476315498352051 -0.0379943400621414185
0.276531249284744263 -0.0626784414052963257 -0.128024742007255554
0.204359576106071472 0.750116586685180664 0.109936244785785675
