ply
format ascii 1.0
element vertex 64
comment vertices
property float x
property float y
property float z
end_header
0.185921221971511841 0.0503637306392192841 -0.0895061716437339783
-0.246241331100463867 -0.949613749980926514 0.00285574235022068024
-0.224859520792961121 0.951648473739624023 0.026323394849896431
-0.58759993314743042 0.0114196809008717537 -0.0198742914944887161
-0.176611363887786865 -0.366754740476608276 -0.0085896272212266922
-0.217002063989639282 0.400112420320510864 -0.0264725442975759506
0.55153268575668335 -0.282712936401367188 -0.0467959269881248474
0.57127755880355835 0.236547857522964478 -0.0546426177024841309
-0.211133569478988647 0.00796894822269678116 -0.142515718936920166
0.443199485540390015 -0.00854090601205825806 0.194923907518386841
-0.00510022789239883423 0.691816389560699463 -0.00120297633111476898
-0.0556419454514980316 -0.680476784706115723 -0.00416216440498828888
-0.0108024589717388153 -0.145523130893707275 -0.0252103991806507111
0.0303522925823926926 0.282332062721252441 -0.0480822324752807617
-0.303205877542495728 -0.60306847095489502 0.00247861095704138279
0.449553430080413818 0.0126077774912118912 -0.0728685781359672546
-0.258546292781829834 0.699716329574584961 0.00215397961437702179
-0.34061431884765625 0.00273794820532202721 0.0582665354013442993
-0.0646304488182067871 0.0753128677606582642 0.0158374402672052383
-0.287156671285629272 0.1910858154296875 -0.031728159636259079
-0.31009972095489502 -0.20267021656036377 -0.0238528680056333542
0.0232662372291088104 0.489146500825881958 -0.019891057163476944
-0.0266338307410478592 0.887971043586730957 0.010153232142329216
-0.00928909238427877426 -0.490092337131500244 -0.0236771926283836365
0.385948777198791504 -0.160997822880744934 -0.0544785633683204651
0.388329297304153442 0.225282415747642517 -0.0426125675439834595
-0.427945375442504883 -0.0185973700135946274 -0.0996976196765899658
-0.077165164053440094 -0.888837158679962158 -0.0102090509608387947
0.0191560909152030945 0.0125800743699073792 -0.132787004113197327
-0.2908669114112854 -0.776632368564605713 0.01171133853495121
-0.189386710524559021 -0.0766102448105812073 0.0366563983261585236
0.0151311513036489487 -0.322540163993835449 -0.0243412703275680542
-0.134006008505821228 0.586036622524261475 -0.000457356683909893036
-0.127540022134780884 0.263712644577026367 -0.023420628160238266
0.577917516231536865 0.00473981304094195366 0.112351387739181519
-0.161974579095840454 -0.53174513578414917 -0.0210447832942008972
0.093763299286365509 -0.0413643792271614075 0.0140771511942148209
0.287339329719543457 -0.048321940004825592 -0.0373437255620956421
0.526166915893554688 -0.112075299024581909 -0.0567704513669013977
-0.139650821685791016 0.7857513427734375 -0.00358975818380713463
0.392440378665924072 -0.00577461440116167068 0.0583195872604846954
-0.284889847040176392 -0.458470791578292847 -0.01699058897793293
0.0476615391671657562 0.123044520616531372 -0.0510448813438415527
-0.470899581909179688 -0.0410976074635982513 0.0430804602801799774
-0.0657113119959831238 -0.0856656283140182495 -0.17781338095664978
0.562225878238677979 0.090899147093296051 -0.0666081830859184265
-0.202843904495239258 0.0582178421318531036 0.047987915575504303
-0.132902473211288452 -0.241827219724655151 -0.0327082797884941101
-0.293847739696502686 -0.0868715494871139526 -0.0885550826787948608
-0.0859795957803726196 0.423743873834609985 -0.0318840108811855316
-0.26485559344291687 0.572829723358154297 0.00345944473519921303
-0.443838149309158325 0.0712241604924201965 -0.0124735431745648384
0.409723669290542603 -0.279283732175827026 -0.0299931447952985764
-0.177501559257507324 -0.737041354179382324 -0.0130576128140091896
-0.303866326808929443 -0.340917378664016724 -0.0026495899073779583
-0.0317834094166755676 -0.0464573539793491364 0.0387254431843757629
0.147746339440345764 -0.0627512037754058838 -0.0905882269144058228
-0.337549448013305664 0.0817321762442588806 -0.0635701864957809448
-0.144705146551132202 0.0942737311124801636 -0.0692273825407028198
-0.0810863524675369263 0.0573644712567329407 -0.168323531746864319
0.564194083213806152 -0.0078691067174077034 -0.00814332813024520874
0.462613403797149658 0.138597026467323303 -0.0497226081788539886
-0.235091403126716614 0.837231099605560303 0.022620541974902153
0.337751030921936035 0.0419974923133850098 -0.0751304030418395996
