ply
format ascii 1.0
element vertex 737
comment vertices
property float x
property float y
property float z
end_header
-0.364080101251602173 -0.155168443918228149 -0.293955892324447632
-0.318932980298995972 -0.259702682495117188 0.027981167659163475
0.0625796988606452942 0.158422365784645081 -0.888152360916137695
-0.264965981245040894 0.0430010110139846802 -0.744965553283691406
-0.435791581869125366 -0.0713842511177062988 0.631199002265930176
0.0278940927237272263 0.0695084929466247559 0.421905249357223511
0.158596143126487732 0.0928868949413299561 -0.285587489604949951
-0.0732730627059936523 -0.259702682495117188 0.357511609792709351
-0.433678567409515381 -0.0730028152465820312 -0.728864610195159912
-0.163615226745605469 -0.259702682495117188 0.734363794326782227
-0.161900877952575684 0.0441328771412372589 -0.523573696613311768
0.195132642984390259 0.309343636035919189 -0.248097151517868042
-0.229700282216072083 0.268129557371139526 -0.874671757221221924
-0.32434314489364624 -0.0755771324038505554 0.20693717896938324
0.163625553250312805 0.104723453521728516 0.629212558269500732
-0.273030370473861694 0.0441328771412372589 0.590193212032318115
0.28395572304725647 -0.151768654584884644 -0.888152360916137695
-0.418747782707214355 -0.0755771324038505554 0.468745768070220947
-0.0621581263840198517 -0.0277621205896139145 0.260439753532409668
0.112757317721843719 0.268129557371139526 -0.873580396175384521
-0.133453696966171265 -0.0755771324038505554 -0.221855700016021729
0.0233025327324867249 0.267110913991928101 0.895714640617370605
-0.330502837896347046 0.0232519377022981644 -0.756634056568145752
0.346463561058044434 -0.237684309482574463 -0.527850568294525146
0.0626191645860671997 0.0441328771412372589 0.50119471549987793
-0.35377010703086853 -0.314559787511825562 -0.775953352451324463
0.209578007459640503 0.212869793176651001 -0.682430744171142578
0.346960932016372681 0.11440751701593399 -0.637391269207000732
0.118491403758525848 -0.259702682495117188 -0.600502967834472656
-0.364080101251602173 -0.187987208366394043 0.00920908618718385696
-0.127912968397140503 -0.259702682495117188 -0.605798482894897461
0.143807902932167053 0.140447631478309631 0.768975615501403809
0.0258564110845327377 -0.0755771324038505554 0.286206752061843872
-0.386499166488647461 0.0809565335512161255 -0.888152360916137695
-0.126907289028167725 -0.0755771324038505554 0.763041198253631592
-0.248970732092857361 -0.0755771324038505554 0.691580832004547119
0.00974693801254034042 -0.0755771324038505554 0.472203373908996582
0.346960932016372681 -0.0962557271122932434 -0.340453535318374634
0.295451819896697998 -0.042351502925157547 0.90049290657043457
0.139831036329269409 0.0487319119274616241 0.475061953067779541
0.346960932016372681 0.137360811233520508 0.00972760561853647232
0.346960932016372681 0.139308393001556396 0.826860725879669189
-0.23343697190284729 -0.0755771324038505554 0.0014940889086574316
-0.246822819113731384 0.0441328771412372589 -0.663166284561157227
0.17940153181552887 -0.215836361050605774 0.90049290657043457
-0.349920809268951416 0.0441328771412372589 -0.213236123323440552
-0.340283572673797607 -0.0671414509415626526 0.90049290657043457
0.258704006671905518 -0.254273593425750732 -0.887408792972564697
0.0306120272725820541 0.0811575725674629211 0.217225253582000732
0.106603614985942841 -0.0845714658498764038 -0.888152360916137695
0.202453508973121643 0.394507765769958496 -0.637765049934387207
-0.157737612724304199 -0.211034208536148071 0.90049290657043457
0.32959321141242981 -0.258098989725112915 0.13134746253490448
-0.179905503988265991 -0.0755771324038505554 -0.614364206790924072
-0.161235064268112183 0.0254857707768678665 -0.756634056568145752
0.346960932016372681 -0.157044261693954468 0.729762911796569824
-0.442149639129638672 0.0232796464115381241 0.0589848197996616364
-0.0920358896255493164 -0.259702682495117188 0.589765608310699463
0.251039296388626099 0.000583477842155843973 -0.888152360916137695
0.295485705137252808 0.268129557371139526 0.638250768184661865
0.0483436435461044312 0.0441328771412372589 0.616211414337158203
0.265623182058334351 0.320148974657058716 -0.269294232130050659
0.212108656764030457 0.334629237651824951 0.260439753532409668
0.152413532137870789 0.369576990604400635 -0.72018122673034668
0.346960932016372681 -0.0685042515397071838 -0.713141500949859619
-0.0604299269616603851 0.191780343651771545 -0.888152360916137695
-0.0713066533207893372 -0.113894559442996979 -0.888152360916137695
-0.239366397261619568 -0.0755771324038505554 -0.434273123741149902
0.346960932016372681 0.0776268169283866882 0.156005144119262695
0.12207358330488205 0.00694303493946790695 -0.370499491691589355
0.181592300534248352 0.147003009915351868 0.487299561500549316
0.130820751190185547 0.027528734877705574 -0.222616195678710938
-0.263290494680404663 -0.259702682495117188 -0.625043988227844238
-0.166752874851226807 -0.259702682495117188 0.045332442969083786
0.113659337162971497 -0.0128576746210455894 0.708473145961761475
-0.307897388935089111 -0.259702682495117188 0.296787858009338379
0.0473086647689342499 0.0441328771412372589 0.287752658128738403
0.346960932016372681 0.212067440152168274 0.329096317291259766
0.346960932016372681 0.0178082901984453201 -0.644079267978668213
0.257003605365753174 -0.259702682495117188 0.119303196668624878
0.346960932016372681 -0.0840814784169197083 -0.413834542036056519
0.121686868369579315 0.0441328771412372589 0.0662212520837783813
0.139725372195243835 -0.259702682495117188 -0.41177833080291748
-0.126817584037780762 -0.259702682495117188 -0.24526350200176239
-0.245068594813346863 -0.0755771324038505554 0.518271386623382568
0.104548387229442596 0.257141798734664917 -0.272155791521072388
0.143426179885864258 0.34863203763961792 0.619624137878417969
-0.403450250625610352 -0.0755771324038505554 -0.525436520576477051
0.113821804523468018 -0.0124798202887177467 0.228797093033790588
0.154255449771881104 0.0826780572533607483 0.369656562805175781
-0.0893040001392364502 -0.259702682495117188 0.287564277648925781
-0.133087903261184692 0.0948620736598968506 0.768975615501403809
0.346960932016372681 -0.0959646925330162048 -0.154289528727531433
-0.13052833080291748 0.00823975820094347 -0.248097151517868042
-0.340550690889358521 -0.259702682495117188 -0.515312910079956055
0.300898879766464233 -0.308150917291641235 -0.86871039867401123
-0.012333541177213192 -0.0755771324038505554 -0.29397284984588623
0.2433137446641922 0.292261958122253418 0.539662837982177734
-0.26599457859992981 0.204509362578392029 0.768975615501403809
0.180965378880500793 -0.0443489179015159607 -0.888152360916137695
0.0888262391090393066 -0.071299135684967041 0.103468418121337891
-0.374408036470413208 0.0441328771412372589 0.665399134159088135
0.261571526527404785 0.339722424745559692 0.0844656825065612793
0.346960932016372681 0.0534580238163471222 -0.2973766028881073
0.290856987237930298 0.151926785707473755 -0.756634056568145752
0.149196147918701172 0.362209290266036987 -0.654608547687530518
0.0231457501649856567 0.268129557371139526 -0.83032304048538208
0.154209598898887634 -0.259702682495117188 0.422339826822280884
-0.17016562819480896 0.0441328771412372589 -0.130580723285675049
-0.0113451015204191208 -0.198570296168327332 0.90049290657043457
-0.19888092577457428 -0.0755771324038505554 -0.710716485977172852
0.0985013321042060852 -0.0485292300581932068 0.616957962512969971
-0.156034231185913086 -0.259702682495117188 0.256816715002059937
-0.375062882900238037 -0.0755771324038505554 0.566186368465423584
0.18041519820690155 -0.259702682495117188 -0.129199281334877014
0.020508449524641037 -0.0445965006947517395 0.90049290657043457
0.316160529851913452 -0.164232552051544189 -0.756634056568145752
-0.182494968175888062 -0.000242089605308137834 0.90049290657043457
-0.274731755256652832 -0.0755771324038505554 0.159812584519386292
-0.0805113911628723145 0.0441328771412372589 0.709336280822753906
0.00194845744408667088 -0.259702682495117188 0.521392107009887695
0.260033637285232544 0.333406269550323486 0.610500216484069824
-0.364080101251602173 -0.169316783547401428 0.326175928115844727
0.346960932016372681 -0.214364215731620789 0.53764951229095459
0.346960932016372681 0.0623368397355079651 -0.817647874355316162
0.0897531881928443909 0.222324609756469727 0.235692352056503296
-0.309537976980209351 -0.0755771324038505554 -0.370576202869415283
0.33962714672088623 -0.251857548952102661 -0.0132312169298529625
-0.288785398006439209 -0.0755771324038505554 0.28265148401260376
-0.289623647928237915 -0.259702682495117188 -0.330747544765472412
0.02796216681599617 0.0701251551508903503 0.0170526076108217239
0.0447131171822547913 0.116333164274692535 0.638184905052185059
-0.0561841242015361786 -0.0755771324038505554 0.411207526922225952
0.179923802614212036 0.143083944916725159 -0.3595256507396698
-0.2640838623046875 0.0600766949355602264 0.768975615501403809
0.246129482984542847 0.298870176076889038 -0.210021719336509705
-0.177646949887275696 -0.0755771324038505554 0.331110656261444092
-0.364080101251602173 -0.151025101542472839 -0.0995560288429260254
-0.158056557178497314 -0.0755771324038505554 0.609074950218200684
0.318049311637878418 -0.259702682495117188 -0.178147837519645691
0.0627979785203933716 0.107237167656421661 0.768975615501403809
-0.283019423484802246 -0.259702682495117188 -0.181796818971633911
0.346960932016372681 -0.230446189641952515 -0.343529403209686279
-0.363329559564590454 -0.0642531737685203552 0.768975615501403809
-0.00478972028940916061 -0.0980896875262260437 -0.756634056568145752
0.299530357122421265 0.299135297536849976 -0.358815997838973999
-0.204669833183288574 -0.0755771324038505554 -0.227141261100769043
0.346960932016372681 0.212566792964935303 -0.555626928806304932
-0.183958128094673157 -0.259702682495117188 -0.420156687498092651
0.113442063331604004 -0.0133739719167351723 0.296582549810409546
0.171326160430908203 0.122850671410560608 0.237458527088165283
-0.202624574303627014 0.0441328771412372589 0.608644366264343262
-0.10233432799577713 -0.259702682495117188 0.829563796520233154
0.155756503343582153 0.376289844512939453 0.0870415940880775452
0.0703646242618560791 0.0441328771412372589 0.707758486270904541
0.163044467568397522 0.103354565799236298 -0.636561036109924316
-0.212055474519729614 -0.259702682495117188 -0.549900829792022705
0.182549148797988892 0.0820287987589836121 0.90049290657043457
0.181735828518867493 -0.259702682495117188 0.494845688343048096
0.18317607045173645 -0.259702682495117188 0.815214097499847412
0.341948479413986206 -0.248832553625106812 0.605935335159301758
0.234568595886230469 0.271665871143341064 0.279439091682434082
0.205699801445007324 0.203731924295425415 0.595142900943756104
-0.442149639129638672 -0.014131573960185051 -0.269034087657928467
0.211714953184127808 0.0748449936509132385 -0.888152360916137695
0.016835460439324379 0.0425358451902866364 -0.746082842350006104
0.144436836242675781 0.351011216640472412 0.433839887380599976
-0.0513428933918476105 0.0441328771412372589 -0.540956377983093262
0.0667662918567657471 0.161245048046112061 -0.756634056568145752
-0.229042455554008484 0.0441328771412372589 0.201689481735229492
0.0830473005771636963 0.0441328771412372589 -0.519581854343414307
0.243400484323501587 0.292170256376266479 -0.739973962306976318
-0.274632096290588379 -0.0755771324038505554 -0.19061771035194397
0.263044685125350952 0.356268852949142456 -0.322340309619903564
-0.133077934384346008 0.0441328771412372589 -0.388691455125808716
0.0970560982823371887 -0.0519323050975799561 -0.268265634775161743
0.0702086389064788818 0.176331296563148499 0.0420561507344245911
0.224969252943992615 -0.259702682495117188 -0.508077740669250488
-0.216217756271362305 0.266748130321502686 0.773099958896636963
0.33875700831413269 0.0216965675354003906 0.900419116020202637
-0.0187294967472553253 -0.259702682495117188 0.0731277763843536377
0.104363001883029938 -0.0347361192107200623 -0.500371158123016357
0.346960932016372681 -0.0292905792593955994 0.542684853076934814
-0.364080101251602173 -0.21253126859664917 -0.269523501396179199
-0.243284478783607483 -0.0125633459538221359 -0.248097151517868042
-0.206287488341331482 -0.0851175710558891296 0.90049290657043457
-0.331576287746429443 -0.0755771324038505554 -0.608513534069061279
-0.191648766398429871 0.0807348713278770447 -0.888152360916137695
-0.172440126538276672 -0.0755771324038505554 0.175889566540718079
-0.399152427911758423 -0.181364059448242188 -0.805696249008178711
0.346960932016372681 0.205462217330932617 -0.204044446349143982
0.325980126857757568 0.149950295686721802 0.90049290657043457
0.305508643388748169 -0.110632322728633881 0.768975615501403809
-0.335123598575592041 0.0441328771412372589 0.451250463724136353
0.17424851655960083 0.393381476402282715 0.253665059804916382
0.0320938378572463989 -0.0169990155845880508 0.768975615501403809
0.153162062168121338 -0.259702682495117188 -0.288301557302474976
0.332184672355651855 -0.257024526596069336 0.483884841203689575
0.0450109429657459259 0.117034852504730225 0.291002959012985229
-0.154505267739295959 -0.259702682495117188 -0.687413334846496582
0.346960932016372681 -0.125904962420463562 -0.0840383991599082947
0.336600124835968018 -0.0504936538636684418 -0.888152360916137695
-0.00648642610758543015 -0.0418824516236782074 0.260439753532409668
0.346960932016372681 0.0891662538051605225 0.458114832639694214
-0.213499709963798523 0.205133303999900818 -0.756634056568145752
0.346960932016372681 -0.0140761556103825569 0.642827630043029785
-0.442149639129638672 -0.0061859767884016037 0.70977783203125
-0.339814126491546631 -0.259702682495117188 0.852437376976013184
0.0943659693002700806 -0.0582625307142734528 -0.375294655561447144
-0.101968534290790558 -0.259702682495117188 0.026121700182557106
0.308640331029891968 0.268129557371139526 0.292170077562332153
-0.0575933754444122314 0.0441328771412372589 0.281168371438980103
-0.270836591720581055 0.0441328771412372589 -0.0831592977046966553
-0.287344157695770264 0.0241099093109369278 -0.888152360916137695
-0.399152427911758423 0.101511344313621521 0.855484306812286377
-0.222371459007263184 -0.252764582633972168 0.900252640247344971
0.228729858994483948 0.257926195859909058 -0.113017633557319641
0.117261461913585663 -0.149026691913604736 0.90049290657043457
-0.0780300796031951904 -0.0755771324038505554 0.284223318099975586
0.223325684666633606 -0.259702682495117188 -0.417896181344985962
-0.0911703407764434814 -0.259702682495117188 -0.494666963815689087
0.27752193808555603 -0.209870040416717529 -0.888152360916137695
-0.0440726689994335175 0.183542504906654358 -0.756634056568145752
-0.34345710277557373 -0.0755771324038505554 0.729361236095428467
0.0506332926452159882 0.0799544379115104675 -0.756634056568145752
-0.248278021812438965 -0.259702682495117188 0.13476918637752533
-0.0273552816361188889 0.0441328771412372589 -0.109934791922569275
-0.125337556004524231 0.0441328771412372589 -0.0651811882853507996
0.13349093496799469 0.0457600131630897522 0.620576977729797363
-0.254654973745346069 -0.0755771324038505554 -0.59480971097946167
-0.32266467809677124 -0.195198431611061096 0.90049290657043457
-0.048363812267780304 -0.255383938550949097 -0.756634056568145752
0.17972545325756073 0.142607510089874268 0.554650425910949707
-0.440368503332138062 0.0340070687234401703 0.499016910791397095
-0.146611303091049194 -0.182055771350860596 -0.756634056568145752
0.0771038979291915894 0.192556783556938171 0.192990168929100037
0.200288638472557068 -0.259702682495117188 0.256109029054641724
0.188736751675605774 0.163813576102256775 -0.512206196784973145
0.127452850341796875 -0.235591217875480652 -0.756634056568145752
-0.359037727117538452 0.0441328771412372589 0.751181304454803467
-0.442149639129638672 -0.050660204142332077 -0.377797394990921021
0.0952650085091590881 -0.0561451129615306854 -0.605169594287872314
0.0244709812104701996 -0.0302216112613677979 -0.888152360916137695
-0.274263322353363037 -0.0755771324038505554 0.619065999984741211
-0.0969009473919868469 -0.0755771324038505554 0.358108639717102051
0.294125199317932129 -0.259702682495117188 -0.581922233104705811
-0.0456835553050041199 0.0441328771412372589 -0.400205492973327637
0.174009308218955994 -0.185888126492500305 -0.756634056568145752
0.0838546380400657654 -0.0755771324038505554 0.48332667350769043
0.346960932016372681 -0.0103670889511704445 0.748537957668304443
0.176958590745925903 -0.092286720871925354 0.768975615501403809
-0.376329690217971802 -0.0755771324038505554 0.503698468208312988
0.176208063960075378 0.134332790970802307 0.0873842611908912659
-0.152978315949440002 0.0441328771412372589 0.509855151176452637
-0.364080101251602173 -0.128525316715240479 0.565317273139953613
0.0616467706859111786 -0.259702682495117188 0.286874562501907349
-0.421384125947952271 -0.0755771324038505554 -0.188106998801231384
0.153323531150817871 -0.259702682495117188 0.742968380451202393
-0.135919556021690369 -0.259702682495117188 0.540193080902099609
0.220902666449546814 0.239506945013999939 -0.230189219117164612
0.346960932016372681 0.230263426899909973 0.413679361343383789
0.18878956139087677 0.163948133587837219 0.230984866619110107
0.302741795778274536 0.268129557371139526 0.177518203854560852
-0.274957001209259033 -0.259702682495117188 -0.0412437357008457184
0.113685250282287598 0.00865575578063726425 0.768975615501403809
-0.368514478206634521 0.0441328771412372589 0.04864492267370224
0.198570311069488525 0.152647405862808228 0.90049290657043457
-0.381373047828674316 0.266838818788528442 -0.842617511749267578
-0.101139672100543976 0.000429047213401645422 -0.756634056568145752
-0.358007133007049561 0.0441328771412372589 -0.422824889421463013
-0.364080101251602173 -0.213216006755828857 -0.421096593141555786
0.346960932016372681 0.0370157510042190552 -0.487557411193847656
0.0138701405376195908 -0.0755771324038505554 0.722762048244476318
-0.196336314082145691 0.0966097116470336914 0.90049290657043457
-0.379886984825134277 -0.127192705869674683 -0.345268696546554565
-0.0157736968249082565 0.0441328771412372589 0.515377938747406006
0.199738457798957825 0.0774316638708114624 -0.756634056568145752
0.322944164276123047 0.267892330884933472 0.482125639915466309
0.0938347205519676208 0.231928929686546326 -0.716543316841125488
0.107549488544464111 0.00112112471833825111 -0.248097151517868042
-0.029613034799695015 0.0441328771412372589 0.122556470334529877
0.156903728842735291 0.0889062210917472839 -0.146391570568084717
0.292995929718017578 -0.247890666127204895 0.90049290657043457
0.346960932016372681 -0.148330003023147583 0.882898867130279541
0.346960932016372681 0.228743448853492737 -0.0210025887936353683
0.0435221530497074127 -0.108646869659423828 0.768975615501403809
-0.226702168583869934 -0.00202268734574317932 -0.756634056568145752
0.0846081525087356567 0.210218533873558044 -0.620084404945373535
-0.399152427911758423 0.0171332191675901413 -0.840782582759857178
0.00824967492371797562 0.217628106474876404 0.768975615501403809
0.346960932016372681 0.0859166756272315979 0.745899677276611328
0.271673262119293213 -0.259702682495117188 0.225458100438117981
0.0977747291326522827 -0.0502498559653759003 -0.13927304744720459
0.346177518367767334 0.128351524472236633 -0.882824838161468506
-0.193802684545516968 -0.0755771324038505554 -0.33672785758972168
0.159568935632705688 0.382410645484924316 -0.395942568778991699
-0.0260635986924171448 -0.259702682495117188 0.637236058712005615
-0.211893007159233093 -0.259702682495117188 -0.862116158008575439
0.346960932016372681 0.000783468247391283512 -0.372298508882522583
0.346960932016372681 -0.0039835306815803051 -0.0147548923268914223
0.122793219983577728 0.00863636098802089691 0.331124633550643921
-0.301687866449356079 0.0274175014346837997 0.260333120822906494
-0.123650327324867249 0.159923404455184937 0.768975615501403809
-0.437230855226516724 0.0387261100113391876 -0.632023990154266357
-0.120273761451244354 -0.0755771324038505554 0.468187600374221802
0.0316285714507102966 0.0795618370175361633 -0.237619712948799133
0.346960932016372681 -0.133414193987846375 -0.270270019769668579
0.0905665010213851929 0.224238306283950806 0.653641939163208008
-0.241782441735267639 0.0441328771412372589 -0.508590102195739746
-0.302402496337890625 -0.307915687561035156 0.860686123371124268
0.346960932016372681 -0.0987584814429283142 0.207749500870704651
0.117028228938579559 0.0441328771412372589 -0.0721434280276298523
-0.347116023302078247 0.268129557371139526 0.797918140888214111
0.346960932016372681 -0.0257869362831115723 -0.174039393663406372
-0.382407665252685547 0.163164719939231873 -0.888152360916137695
0.261176854372024536 0.364893436431884766 -0.0645080059766769409
-0.394045263528823853 -0.17734430730342865 -0.887275218963623047
-0.389835149049758911 -0.0820444002747535706 0.642166793346405029
0.138013020157814026 0.0359366089105606079 -0.74914175271987915
0.177576556801795959 0.256144076585769653 -0.248097151517868042
0.115136474370956421 0.282059609889984131 0.008923298679292202
-0.399152427911758423 -0.0664553120732307434 -0.834383666515350342
-0.204174458980560303 -0.0539040043950080872 0.768975615501403809
0.255224496126174927 0.320273607969284058 -0.422517895698547363
0.0291314087808132172 0.0766020938754081726 -0.112914964556694031
-0.135852783918380737 -0.259702682495117188 0.88374406099319458
-0.399152427911758423 0.1863851398229599 -0.832443058490753174
0.111807450652122498 0.274224430322647095 -0.179827302694320679
0.344801068305969238 0.252305746078491211 0.811914026737213135
0.179475292563438416 -0.0424914434552192688 -0.756634056568145752
0.0280564557760953903 0.0709798336029052734 0.730651974678039551
-0.366871893405914307 -0.128186434507369995 0.0438759475946426392
-0.216563612222671509 -0.0755771324038505554 0.381051987409591675
0.239404648542404175 0.26761627197265625 0.89448469877243042
0.181623205542564392 0.400797039270401001 0.193101808428764343
0.21544964611530304 0.135351449251174927 0.768975615501403809
-0.37579643726348877 -0.212651863694190979 -0.756634056568145752
-0.295182317495346069 -0.259702682495117188 0.714125454425811768
0.210686355829238892 0.215465232729911804 0.370053261518478394
-0.442149639129638672 -0.00267346110194921494 0.162829652428627014
-0.0388837791979312897 -0.0755771324038505554 0.136526390910148621
0.0299903769046068192 0.0792447775602340698 0.127936720848083496
-0.421076148748397827 0.0441328771412372589 -0.52527010440826416
0.346960932016372681 -0.0837185829877853394 0.739127039909362793
0.219125524163246155 -0.259702682495117188 -0.784552991390228271
-0.11179623007774353 -0.0755771324038505554 -0.149655804038047791
-0.209080278873443604 -0.0755771324038505554 0.0488482490181922913
-0.4115276038646698 -0.00340748042799532413 0.260439753532409668
0.0147026944905519485 -0.0755771324038505554 -0.398965567350387573
0.0747895315289497375 -0.243257924914360046 0.90049290657043457
0.282784581184387207 0.0887277126312255859 -0.756634056568145752
-0.385801464319229126 -0.112066589295864105 0.90049290657043457
0.245924130082130432 -0.259702682495117188 0.621071398258209229
-0.145907625555992126 0.0441328771412372589 0.37185630202293396
0.34330400824546814 0.180883288383483887 -0.756634056568145752
0.152515187859535217 0.369781315326690674 -0.14024883508682251
0.0366607792675495148 -0.198784604668617249 -0.756634056568145752
0.210459098219871521 0.268129557371139526 -0.782481789588928223
-0.0416122786700725555 -0.032132904976606369 0.768975615501403809
-0.104206755757331848 -0.0755771324038505554 -0.0890939235687255859
-0.154837176203727722 -0.025105183944106102 0.260439753532409668
0.199814200401306152 0.179461970925331116 -0.750113546848297119
-0.0956409052014350891 -0.0755771324038505554 0.540611743927001953
0.257096320390701294 0.219655424356460571 -0.888152360916137695
0.249385744333267212 0.306532889604568481 0.409282863140106201
0.346960932016372681 0.0993769839406013489 0.567372441291809082
0.220607638359069824 0.23882719874382019 0.0226677898317575455
0.0730798691511154175 0.183088019490242004 0.744747519493103027
0.322077006101608276 0.26683083176612854 -0.883757829666137695
0.0401401035487651825 -0.0755771324038505554 -0.73856663703918457
-0.0568411611020565033 -0.0755771324038505554 -0.684882640838623047
0.21991690993309021 -0.13132806122303009 0.90049290657043457
0.184845581650733948 0.154665738344192505 0.373523801565170288
0.0230222586542367935 -0.0755771324038505554 0.0535334981977939606
0.0600319020450115204 0.152383282780647278 0.504659295082092285
0.346960932016372681 0.19693833589553833 -0.349564492702484131
-0.201773390173912048 0.0441328771412372589 0.0415199175477027893
0.0833702310919761658 0.207303151488304138 0.470658451318740845
-0.286799967288970947 0.148137271404266357 0.90049290657043457
-0.137433573603630066 0.0441328771412372589 -0.580632507801055908
0.0448626279830932617 0.116685010492801666 -0.594992101192474365
-0.185821995139122009 -0.119495093822479248 -0.756634056568145752
0.346960932016372681 0.178189173340797424 0.126278191804885864
-0.341811537742614746 -0.259702682495117188 -0.818572759628295898
0.245134741067886353 0.29653090238571167 0.228489100933074951
-0.00519667938351631165 -0.0433675535023212433 -0.248097151517868042
-0.229997307062149048 0.0441328771412372589 0.66448521614074707
0.221462815999984741 0.240840554237365723 0.487842768430709839
-0.395479530096054077 0.0205306131392717361 -0.248097151517868042
-0.190154701471328735 -0.259702682495117188 -0.107918448746204376
-0.343843817710876465 0.0441328771412372589 0.361531347036361694
-0.261214345693588257 0.0441328771412372589 -0.603887796401977539
0.169092521071434021 0.117587029933929443 -0.458582967519760132
0.346960932016372681 0.157215341925621033 -0.501142680644989014
-0.364080101251602173 -0.160039380192756653 0.386079370975494385
-0.320451974868774414 -0.259702682495117188 0.225245803594589233
0.341910600662231445 0.257291287183761597 0.0674739181995391846
-0.0420362837612628937 -0.259702682495117188 -0.298845767974853516
0.243785202503204346 -0.0298966821283102036 -0.756634056568145752
0.00297975563444197178 0.180455699563026428 -0.888152360916137695
0.0588140152394771576 0.0441328771412372589 -0.147413209080696106
0.346960932016372681 0.127911984920501709 -0.43764302134513855
0.346960932016372681 0.115614533424377441 -0.0712614357471466064
0.204028308391571045 0.199809864163398743 -0.460931211709976196
-0.0213598236441612244 -0.259702682495117188 0.217294007539749146
0.0625566765666007996 -0.0755771324038505554 0.161950543522834778
0.143614545464515686 0.05763215571641922 -0.602081775665283203
0.108852192759513855 0.26727139949798584 0.384938150644302368
-0.206700131297111511 -0.0755771324038505554 0.653038918972015381
-0.423515081405639648 -0.00742419296875596046 -0.756634056568145752
-0.268433541059494019 -0.259702682495117188 -0.68523252010345459
-0.152201876044273376 -0.185627996921539307 0.768975615501403809
-0.0405991226434707642 -0.259702682495117188 -0.527559518814086914
0.0669848695397377014 0.0441328771412372589 -0.44953879714012146
-0.418325185775756836 0.0441328771412372589 -0.148830533027648926
0.131618112325668335 0.320845693349838257 -0.45585295557975769
0.0145442178472876549 -0.259702682495117188 -0.874432563781738281
0.0616996027529239655 -0.259702682495117188 0.780457735061645508
0.0220501646399497986 0.0441328771412372589 -0.604378223419189453
0.278098046779632568 -0.259702682495117188 -0.455252975225448608
0.00287300744093954563 0.0441328771412372589 -0.298108190298080444
0.163560777902603149 0.204540267586708069 0.768975615501403809
0.121330037713050842 0.296634525060653687 0.0664702355861663818
0.346960932016372681 -0.194018319249153137 0.645558595657348633
-0.0344111807644367218 -0.139821067452430725 0.90049290657043457
0.24461345374584198 0.295320898294448853 -0.587273597717285156
0.0703783780336380005 -0.0755771324038505554 -0.476060330867767334
-0.0214311182498931885 0.0441328771412372589 0.382192224264144897
-0.364080101251602173 -0.201858460903167725 0.19621354341506958
0.159608796238899231 -0.259702682495117188 -0.0609935000538825989
0.0856118425726890564 -0.0900351479649543762 -0.756634056568145752
0.22434629499912262 0.247624173760414124 -0.531947016716003418
0.164343193173408508 0.0788946375250816345 0.768975615501403809
-0.349106490612030029 -0.259702682495117188 -0.190439313650131226
0.124581314623355865 0.0128438938409090042 -0.0286914296448230743
0.346960932016372681 -0.0246759988367557526 0.0921471491456031799
0.159726411104202271 0.0955536961555480957 0.187371701002120972
0.265996962785720825 0.172612547874450684 0.768975615501403809
-0.000186003133421763778 -0.255683958530426025 -0.758087277412414551
0.243958622217178345 -0.259702682495117188 0.340840607881546021
0.088698655366897583 0.0441328771412372589 0.146970927715301514
0.0721897035837173462 0.0441328771412372589 -0.216591060161590576
0.100476823747158051 0.131461277604103088 0.260439753532409668
0.346960932016372681 -0.215423718094825745 0.0429268777370452881
-0.263963282108306885 -0.0755771324038505554 -0.714577734470367432
0.154811620712280273 0.268129557371139526 0.88555610179901123
0.338694214820861816 0.26110270619392395 -0.588913142681121826
-0.17736189067363739 -0.177329346537590027 -0.888152360916137695
-0.358188539743423462 -0.0755771324038505554 0.383505880832672119
0.346960932016372681 -0.0649333298206329346 -0.567350327968597412
-0.397115141153335571 -0.111444637179374695 0.10033823549747467
-0.213113993406295776 -0.0755771324038505554 -0.0941598191857337952
-0.441501766443252563 -0.0579068027436733246 0.247560203075408936
-0.121665172278881073 0.180175632238388062 -0.888152360916137695
-0.282189160585403442 -0.0755771324038505554 0.459547102451324463
0.2469816654920578 0.3755931556224823 0.722053349018096924
-0.161434412002563477 -0.259702682495117188 -0.327061712741851807
0.338519781827926636 0.256665349006652832 -0.758788943290710449
-0.397543728351593018 -0.110409058630466461 -0.449397265911102295
-0.0816054865717887878 0.137960851192474365 -0.888152360916137695
-0.32601463794708252 0.222758188843727112 0.768975615501403809
-0.00140229274984449148 0.00877641886472702026 0.90049290657043457
0.346960932016372681 -0.119035609066486359 -0.750981688499450684
-0.442149639129638672 0.0182048827409744263 0.301872104406356812
0.170412167906761169 0.154861107468605042 -0.888152360916137695
-0.156291380524635315 0.0441328771412372589 -0.202732756733894348
0.346960932016372681 -0.126819923520088196 -0.615502476692199707
0.346960932016372681 -0.111358925700187683 -0.0283548422157764435
0.28137323260307312 -0.259702682495117188 -0.302021294832229614
-0.0885307490825653076 -0.0755771324038505554 0.0337825343012809753
0.144318222999572754 0.348154634237289429 0.756979167461395264
-0.26335829496383667 0.24587993323802948 -0.756634056568145752
-0.20115642249584198 -0.259702682495117188 0.424690067768096924
0.175161510705947876 0.125301584601402283 -0.756634056568145752
0.176164194941520691 0.134236127138137817 0.732908546924591064
0.346960932016372681 0.031103944405913353 -0.154573589563369751
0.073633342981338501 -0.0755771324038505554 -0.294070512056350708
-0.0992095321416854858 -0.259702682495117188 -0.5478515625
0.127671137452125549 -0.259702682495117188 0.110348723828792572
0.143078327178955078 0.0563711151480674744 -0.557461917400360107
-0.107380881905555725 0.101877741515636444 0.90049290657043457
-0.101494692265987396 -0.0107049737125635147 -0.888152360916137695
0.0570092685520648956 -0.259702682495117188 0.834718763828277588
-0.362167418003082275 -0.0169382169842720032 -0.756634056568145752
0.262260288000106812 0.0684093087911605835 0.768975615501403809
0.0703526660799980164 0.176670178771018982 0.351699769496917725
-0.268568098545074463 -0.259702682495117188 0.537325561046600342
0.198498547077178955 0.39618721604347229 -0.0304503291845321655
-0.415841400623321533 0.0441328771412372589 -0.0369981341063976288
-0.322447389364242554 -0.195507407188415527 -0.756634056568145752
-0.185973480343818665 0.0315815657377243042 0.261214196681976318
-0.395425707101821899 0.100739985704421997 -0.758311569690704346
0.339882314205169678 -0.198051020503044128 -0.887929081916809082
-0.107768803834915161 0.0441328771412372589 0.145002424716949463
-0.364080101251602173 -0.170267641544342041 -0.21373845636844635
-0.438721925020217896 -0.0682223811745643616 -0.568885266780853271
0.346960932016372681 0.0853993818163871765 0.810423910617828369
0.268777787685394287 -0.259702682495117188 -0.205506607890129089
-0.0323317162692546844 -0.0755771324038505554 -0.428606808185577393
0.155423611402511597 0.076180584728717804 -0.888152360916137695
-0.119123056530952454 -0.0755771324038505554 -0.738508820533752441
0.247195959091186523 0.301379889249801636 0.0303250383585691452
-0.331440746784210205 0.257686972618103027 -0.888152360916137695
0.22273661196231842 -0.017409762367606163 0.768975615501403809
0.120794810354709625 0.00392983388155698776 -0.604936361312866211
-0.265741407871246338 -0.151371955871582031 -0.888152360916137695
0.195492461323738098 0.179722115397453308 -0.153562918305397034
0.287660509347915649 -0.259702682495117188 -0.0330011174082756042
-0.0233632270246744156 -0.0755771324038505554 -0.512065589427947998
0.0681208223104476929 -0.259702682495117188 0.201267868280410767
-0.0946463868021965027 0.0441328771412372589 0.485290199518203735
-0.130754590034484863 0.268129557371139526 0.891679883003234863
-0.170466631650924683 0.0441328771412372589 0.0960624441504478455
-0.187321051955223083 -0.0149334287270903587 -0.248097151517868042
0.275549471378326416 0.319973587989807129 -0.703602969646453857
0.0817575529217720032 0.228189274668693542 0.768975615501403809
-0.0696721374988555908 0.0441328771412372589 -0.474001109600067139
-0.231090694665908813 -0.259702682495117188 0.269015461206436157
0.214540645480155945 0.224537312984466553 -0.41700407862663269
0.337927728891372681 -0.137747898697853088 -0.888152360916137695
-0.399152427911758423 0.220666080713272095 0.864940106868743896
0.022089831531047821 0.268129557371139526 0.811660826206207275
-0.38468015193939209 -0.0785552039742469788 -0.592769443988800049
-0.363927602767944336 0.0441328771412372589 0.539885103702545166
-0.322263002395629883 -0.0755771324038505554 0.10281786322593689
0.199014842510223389 0.188011765480041504 -0.215087026357650757
-0.266327470541000366 -0.201514601707458496 -0.756634056568145752
0.123063318431377411 0.0092668505385518074 0.649313211441040039
-0.364080101251602173 -0.202183395624160767 -0.591067075729370117
-0.442149639129638672 -0.00102205737493932247 -0.440163701772689819
-0.0939131975173950195 0.0586170107126235962 -0.888152360916137695
-0.35219728946685791 -0.0755771324038505554 0.0526740327477455139
0.344250887632369995 -0.245004177093505859 -0.732595324516296387
0.346960932016372681 -0.110921368002891541 0.326750069856643677
-0.301478534936904907 0.0441328771412372589 -0.705213665962219238
0.343589037656784058 0.255010843276977539 0.565906286239624023
0.251326322555541992 0.254596173763275146 0.768975615501403809
0.165473461151123047 0.109079085290431976 -0.342330366373062134
0.122084558010101318 0.298409700393676758 0.172210693359375
0.0984714329242706299 -0.0486009940505027771 -0.664887666702270508
-0.329999476671218872 0.0441328771412372589 -0.0740433633327484131
-0.257155716419219971 0.0441328771412372589 0.151124238967895508
0.340949743986129761 0.258544176816940308 0.694986581802368164
0.137848556041717529 -0.259702682495117188 -0.217466160655021667
0.163489997386932373 0.387091219425201416 -0.334313809871673584
0.15220920741558075 -0.259702682495117188 -0.343242377042770386
0.346960932016372681 0.192770078778266907 -0.257504135370254517
0.0110275149345397949 0.133207529783248901 0.90049290657043457
0.174008309841156006 -0.259702682495117188 0.0516993477940559387
0.0250949207693338394 -0.259702682495117188 0.441524535417556763
-0.371202617883682251 0.0441328771412372589 -0.353834450244903564
0.0396943725645542145 0.104523114860057831 -0.164288550615310669
0.346960932016372681 -0.126496002078056335 0.148243740200996399
0.28907284140586853 0.314077019691467285 0.364613175392150879
-0.091727912425994873 0.0441328771412372589 0.411494582891464233
-0.364080101251602173 -0.258653134107589722 -0.244677439332008362
0.040027175098657608 -0.0755771324038505554 -0.609406650066375732
-0.191274002194404602 -0.0755771324038505554 -0.561112880706787109
-0.255432426929473877 -0.0755771324038505554 -0.130722254514694214
0.104723803699016571 0.257554441690444946 -0.666929900646209717
-0.318899095058441162 0.0441328771412372589 0.142748862504959106
-0.0107467742636799812 -0.0755771324038505554 0.399025708436965942
0.0497360602021217346 -0.117136873304843903 -0.888152360916137695
0.0851902291178703308 0.0650002509355545044 0.260439753532409668
-0.442149639129638672 0.0251456927508115768 0.407861560583114624
0.187551647424697876 -0.259702682495117188 -0.660637617111206055
0.346960932016372681 0.113028064370155334 0.242165997624397278
0.256342798471450806 0.322904884815216064 -0.16153264045715332
0.0431049242615699768 0.112548641860485077 0.174551978707313538
0.284249752759933472 0.268129557371139526 -0.769155800342559814
-0.355814367532730103 -0.0755771324038505554 -0.488248139619827271
0.083306439220905304 0.0441328771412372589 0.569001078605651855
0.329852372407913208 -0.0337993092834949493 -0.756634056568145752
-0.243536651134490967 0.0441328771412372589 -0.411491274833679199
-0.256719142198562622 -0.149580866098403931 0.768975615501403809
-0.399152427911758423 0.0154951196163892746 0.802114307880401611
-0.359451353549957275 0.147132590413093567 -0.756634056568145752
-0.158333659172058105 -0.259702682495117188 -0.869482934474945068
0.0111621720716357231 -0.0755771324038505554 0.601819872856140137
0.321119159460067749 -0.272902190685272217 -0.800054848194122314
0.0886308774352073669 0.0182180404663085938 -0.756634056568145752
0.128769516944885254 0.240980088710784912 0.260439753532409668
0.346960932016372681 -0.0884434953331947327 0.416118323802947998
0.283618837594985962 -0.0610369779169559479 -0.888152360916137695
-0.393084436655044556 -0.166583806276321411 0.900016427040100098
-0.128268808126449585 -0.0755771324038505554 -0.379304409027099609
0.346960932016372681 -0.105076640844345093 0.550116360187530518
-0.35317307710647583 0.0435934588313102722 0.247130617499351501
0.258295357227325439 0.317202717065811157 0.313004404306411743
0.346960932016372681 -0.00568017503246665001 0.389460235834121704
0.211332216858863831 0.216985225677490234 0.662505745887756348
0.241416022181510925 -0.265098899602890015 0.818951785564422607
0.131044000387191772 0.199780955910682678 -0.248097151517868042
0.107714943587779999 0.0441328771412372589 -0.634412109851837158
-0.194275110960006714 -0.0468645207583904266 -0.888152360916137695
-0.365074813365936279 0.0441328771412372589 -0.154070243239402771
0.117547519505023956 0.287731915712356567 0.281258076429367065
0.21334858238697052 0.221744537353515625 0.289032459259033203
0.147797748446464539 0.0674798786640167236 0.299201905727386475
-0.104711391031742096 -0.0755771324038505554 -0.620358526706695557
0.346960932016372681 -0.0536623038351535797 -0.0343028232455253601
0.0305711608380079269 0.0512161143124103546 -0.697431266307830811
-0.130018025636672974 -0.0755771324038505554 -0.452151179313659668
-0.336984455585479736 0.227356031537055969 0.90049290657043457
-0.217284232378005981 0.000909123977180570364 0.768975615501403809
-0.397691220045089722 -0.110053226351737976 -0.0937810689210891724
0.115303918719291687 -0.00899202190339565277 -0.704304635524749756
-0.277576357126235962 0.248965755105018616 -0.888152360916137695
-0.362393677234649658 -0.0755771324038505554 -0.729088902473449707
-0.250226587057113647 -0.259702682495117188 0.855410516262054443
-0.0896795615553855896 0.0640661418437957764 0.768975615501403809
0.0723844617605209351 0.210721880197525024 -0.888152360916137695
-0.304073989391326904 -0.00252162176184356213 0.90049290657043457
-0.083781115710735321 0.0441328771412372589 -0.0115532511845231056
-0.425621151924133301 0.0440043024718761444 -0.277245014905929565
-0.0657853633165359497 -0.223040610551834106 -0.888152360916137695
-0.1942242830991745 0.226522773504257202 -0.888152360916137695
-0.196393132209777832 -0.0755771324038505554 0.49669259786605835
0.106031492352485657 0.0441328771412372589 -0.409700185060501099
-0.0545012764632701874 -0.0755771324038505554 0.592430830001831055
-0.197004109621047974 -0.198657020926475525 -0.756634056568145752
0.229982718825340271 0.35774502158164978 0.768975615501403809
0.131324082612991333 0.0441328771412372589 -0.32050633430480957
0.346960932016372681 -0.0818936005234718323 0.65096580982208252
0.0389356724917888641 0.102737903594970703 -0.419217795133590698
0.0282089505344629288 -0.259702682495117188 -0.00247506052255630493
0.23199211061000824 0.265617847442626953 0.666534483432769775
-0.0525790154933929443 0.268129557371139526 0.855926871299743652
0.131049990653991699 0.0280678551644086838 0.522828400135040283
0.285304278135299683 -0.259702682495117188 0.174488186836242676
-0.163512557744979858 -0.0755771324038505554 0.446556955575942993
-0.121406927704811096 -0.010222066193819046 0.768975615501403809
-0.0978085547685623169 0.0441328771412372589 -0.71110224723815918
0.238734841346740723 0.281469583511352539 -0.3798237144947052
-0.297251492738723755 -0.0262077469378709793 0.260439753532409668
0.324754178524017334 0.0444060750305652618 0.768975615501403809
0.0971428155899047852 -0.259702682495117188 -0.704109311103820801
-0.383212000131607056 -0.0755771324038505554 0.193168580532073975
0.0339250005781650543 0.0560991130769252777 -0.888152360916137695
-0.307650178670883179 -0.0755771324038505554 -0.22809910774230957
-0.174305975437164307 -0.259702682495117188 0.207746520638465881
-0.364080101251602173 -0.201728880405426025 -0.0867617204785346985
0.121747672557830811 -0.175132602453231812 0.768975615501403809
0.211186707019805908 0.390798002481460571 -0.356323212385177612
0.346960932016372681 -0.00569142820313572884 0.0374320000410079956
0.0899894014000892639 -0.0685622692108154297 -0.185422852635383606
0.12073102593421936 0.00378281855955719948 -0.428423434495925903
0.346960932016372681 0.0584565401077270508 -0.0698884725570678711
-0.308978796005249023 -0.0755771324038505554 -0.316618174314498901
0.0529661029577255249 0.0441328771412372589 0.18631020188331604
-0.226402163505554199 0.0441328771412372589 -0.31168442964553833
0.187972262501716614 0.225950658321380615 -0.756634056568145752
0.161832466721534729 -0.100783795118331909 -0.888152360916137695
-0.386785209178924561 0.0441328771412372589 0.390700161457061768
0.346960932016372681 -0.220106273889541626 0.413612604141235352
0.00364755420014262199 -0.259702682495117188 -0.631202757358551025
-0.357834696769714355 0.0441328771412372589 -0.533305585384368896
0.298149913549423218 0.146885395050048828 -0.888152360916137695
0.0123112816363573074 0.0441328771412372589 0.579082846641540527
-0.265872955322265625 -0.259702682495117188 0.593827247619628906
0.0183312259614467621 -0.0755771324038505554 -0.00587338302284479141
0.122826114296913147 -0.259702682495117188 -0.652012050151824951
0.208395913243293762 0.210087969899177551 -0.270533144474029541
-0.241013973951339722 0.204809382557868958 -0.888152360916137695
0.299801468849182129 0.297083079814910889 -0.223351761698722839
0.125381693243980408 0.306167125701904297 -0.270998597145080566
0.242437645792961121 -0.259702682495117188 -0.556579768657684326
-0.399152427911758423 0.233150914311408997 -0.788175046443939209
0.134150773286819458 -0.259702682495117188 -0.551402926445007324
0.346960932016372681 0.146481737494468689 0.283916324377059937
0.308486849069595337 -0.259702682495117188 0.645216763019561768
0.0295179374516010284 -0.0755771324038505554 -0.664342403411865234
0.0315108597278594971 0.0501187369227409363 -0.0448216348886489868
-0.360051393508911133 -0.0755771324038505554 -0.361222058534622192
-0.237425804138183594 -0.0755771324038505554 0.75288468599319458
-0.179930418729782104 -0.0755771324038505554 0.0909755229949951172
0.100300393998622894 0.247145757079124451 -0.554283380508422852
0.034102313220500946 0.116015210747718811 -0.888152360916137695
-0.364080101251602173 -0.210635513067245483 0.379073500633239746
-0.375214368104934692 -0.167142957448959351 -0.756634056568145752
-0.0069239824078977108 -0.259702682495117188 0.333555608987808228
0.202760487794876099 0.196814745664596558 0.470072388648986816
0.177819743752479553 0.399916917085647583 0.1444711834192276
-0.202417254447937012 -0.0755771324038505554 0.251891940832138062
-0.310941338539123535 0.0361579768359661102 0.76602935791015625
-0.133952051401138306 -0.259702682495117188 0.693743705749511719
0.294593632221221924 0.268129557371139526 -0.123585782945156097
0.346960932016372681 -0.0417493879795074463 0.493355602025985718
-0.396109491586685181 -0.053639676421880722 -0.885947644710540771
0.12789839506149292 0.0206450372934341431 0.160054802894592285
-0.0373268164694309235 -0.242661893367767334 0.768975615501403809
0.346960932016372681 0.052533470094203949 -0.439305543899536133
0.309263259172439575 -0.259702682495117188 0.357290327548980713
0.0718852132558822632 -0.0755771324038505554 -0.421662747859954834
-0.346336603164672852 -0.322750747203826904 0.87986290454864502
0.133142083883285522 0.324431866407394409 -0.049853641539812088
0.146317631006240845 0.0639938786625862122 0.0237673632800579071
-0.054686766117811203 -0.173350483179092407 0.768975615501403809
-0.370365351438522339 -0.128186434507369995 0.44895404577255249
0.241409033536911011 -0.304621577262878418 0.850508689880371094
-0.0144521547481417656 0.0441328771412372589 0.725208938121795654
0.234325379133224487 0.27109178900718689 -0.157528847455978394
0.237315535545349121 -0.025200866162776947 0.90049290657043457
0.110811725258827209 0.271882176399230957 -0.0807250291109085083
0.249108642339706421 0.305898994207382202 0.699540555477142334
-0.395822405815124512 -0.0376946628093719482 -0.248097151517868042
0.297729313373565674 0.268129557371139526 0.803220689296722412
-0.0966268479824066162 0.0441328771412372589 -0.334586918354034424
0.346960932016372681 0.0778144970536231995 -0.209955945611000061
-0.11237720400094986 -0.0755771324038505554 -0.0466549880802631378
0.346960932016372681 0.0154923293739557266 0.294941961765289307
0.178094834089279175 0.138772159814834595 -0.0849309563636779785
0.223658576607704163 -0.110972195863723755 0.768975615501403809
-0.3670024573802948 0.0441328771412372589 -0.643714427947998047
0.0382939912378787994 -0.0755771324038505554 0.241604849696159363
-0.364080101251602173 -0.254301518201828003 0.59715723991394043
0.183421269059181213 -0.259702682495117188 0.876578748226165771
-0.130353912711143494 0.0441328771412372589 0.714504241943359375
0.0714842304587364197 0.179333403706550598 -0.0826443955302238464
0.0775922909379005432 0.193706989288330078 -0.395096361637115479
0.0776371434330940247 0.0441328771412372589 -0.316077947616577148
0.052338872104883194 0.0435523912310600281 -0.261091291904449463
-0.367416113615036011 -0.128186434507369995 -0.484784573316574097
0.229988694190979004 0.260888427495956421 -0.709656000137329102
0.346960932016372681 -0.173208937048912048 -0.480522602796554565
0.346960932016372681 0.172206893563270569 0.513900816440582275
0.136450186371803284 0.0475196093320846558 -0.670125365257263184
0.124996952712535858 0.0138189969584345818 0.44849357008934021
0.342084020376205444 0.131748318672180176 -0.756634056568145752
0.0480043701827526093 -0.259702682495117188 -0.266113728284835815
-0.442149639129638672 -0.0550503246486186981 -0.313030987977981567
0.278795748949050903 0.00241095107048749924 0.90049290657043457
-0.365981817245483398 -0.259702682495117188 -0.782556533813476562
0.036685895174741745 0.0974433645606040955 0.0665048137307167053
-0.332548081874847412 0.219884663820266724 -0.756634056568145752
0.11957184225320816 0.292497187852859497 0.430531769990921021
-0.272223055362701416 0.11008676141500473 0.768975615501403809
