ply
format ascii 1.0
element vertex 64
comment vertices
property float x
property float y
property float z
end_header
0.00498180463910102844 0.0100826062262058258 -0.0299364589154720306
-0.0382344499230384827 -0.0899151414632797241 -0.0207002665847539902
-0.0360962674021720886 0.100211076438426971 -0.0183535013347864151
-0.0723703131079673767 0.00618820171803236008 -0.0229732710868120193
-0.0312714539468288422 -0.0316292382776737213 -0.0218448042869567871
-0.0353105217218399048 0.0450574755668640137 -0.0236330963671207428
0.0415429547429084778 -0.0232250578701496124 -0.0256654340773820877
0.0435174405574798584 0.0287010185420513153 -0.0264501031488180161
-0.0347236767411231995 0.00584312807768583298 -0.0352374128997325897
0.0307096298784017563 0.00419214274734258652 -0.00149345025420188904
-0.0141203412786126137 0.0742278695106506348 -0.0211061388254165649
-0.0191745124757289886 -0.0630014464259147644 -0.0214020572602748871
-0.0146905640140175819 -0.00950607936829328537 -0.0235068816691637039
-0.0105750886723399162 0.0332794412970542908 -0.0257940646260976791
-0.0439309068024158478 -0.0552606135606765747 -0.0207379795610904694
0.0313450247049331665 0.00630701100453734398 -0.0282726995646953583
-0.039464946836233139 0.0750178620219230652 -0.0207704436033964157
-0.0476717501878738403 0.0053200284019112587 -0.015159187838435173
-0.0200733616948127747 0.0125775206834077835 -0.0194020979106426239
-0.0423259884119033813 0.0241548158228397369 -0.0241586565971374512
-0.0446202903985977173 -0.0152207883074879646 -0.0233711283653974533
-0.0112836947664618492 0.0539608858525753021 -0.0229749474674463272
-0.0162737015634775162 0.0938433334231376648 -0.0199705176055431366
-0.0145392268896102905 -0.0439630001783370972 -0.0233535598963499069
0.0249845590442419052 -0.0110535481944680214 -0.0264336969703435898
0.02522260881960392 0.0275744758546352386 -0.0252470988780260086
-0.0564048588275909424 0.00318649644032120705 -0.0309556033462285995
-0.0213268343359231949 -0.0838374868035316467 -0.022006746381521225
-0.011694708839058876 0.00630424078553915024 -0.0342645421624183655
-0.0426970124244689941 -0.0726170018315315247 -0.019814707338809967
-0.0325489863753318787 -0.00261479150503873825 -0.0173202008008956909
-0.0120972031727433205 -0.0272077806293964386 -0.0234199687838554382
-0.0270109176635742188 0.0636498928070068359 -0.0210315771400928497
-0.0263643190264701843 0.031417500227689743 -0.0233279038220643997
0.04418143630027771 0.00552021479234099388 -0.00975070241838693619
-0.0298077762126922607 -0.0481282807886600494 -0.0230903197079896927
-0.00423398800194263458 0.000909795518964529037 -0.0195781253278255463
0.015123613178730011 0.000214039348065853119 -0.024720214307308197
0.0390063747763633728 -0.00616129674017429352 -0.0266628861427307129
-0.0275753997266292572 0.0836213678121566772 -0.0213448181748390198
0.025633716955780983 0.00446877209469676018 -0.0151538830250501633
-0.0420993044972419739 -0.0408008433878421783 -0.022684900090098381
-0.00884416420012712479 0.0173506848514080048 -0.0260903295129537582
-0.0607002750039100647 0.000936472788453102112 -0.0166777949780225754
-0.0201814491301774979 -0.00352032948285341263 -0.0387671813368797302
0.0426122695207595825 0.0141361476853489876 -0.0276466608047485352
-0.0338947102427482605 0.0108680175617337227 -0.0161870494484901428
-0.0269005652517080307 -0.0191364884376525879 -0.0242566689848899841
-0.0429950952529907227 -0.00364092178642749786 -0.0298413485288619995
-0.0222082771360874176 0.0474206209182739258 -0.0241742432117462158
-0.0400958769023418427 0.0623292028903961182 -0.0206398963928222656
-0.0579941347241401672 0.0121686495840549469 -0.0222331956028938293
0.0273620467633008957 -0.0228821374475955963 -0.023985154926776886
-0.0313604734838008881 -0.0686579048633575439 -0.0222916025668382645
-0.0439969524741172791 -0.0290455035865306854 -0.0212508011609315872
-0.0167886596173048019 0.000400498043745756149 -0.0171132981777191162
0.00116431526839733124 -0.00122888712212443352 -0.0300446636974811554
-0.0473652631044387817 0.0132194515317678452 -0.0273428596556186676
-0.0280808322131633759 0.0144736068323254585 -0.0279085785150527954
-0.0217189528048038483 0.0107826804742217064 -0.0378181934356689453
0.0428090915083885193 0.00425932276993989944 -0.0218001734465360641
0.0326510220766067505 0.018905937671661377 -0.0259581021964550018
-0.0371194556355476379 0.0887693390250205994 -0.0187237877398729324
0.0201647821813821793 0.00924598239362239838 -0.0284988805651664734
