ply
format ascii 1.0
element vertex 737
comment vertices
property float x
property float y
property float z
end_header
0.498570740222930908 -0.267330557107925415 0.317849308252334595
0.196967601776123047 0.212391406297683716 -0.0861801281571388245
0.308684259653091431 -0.249198555946350098 -0.392866700887680054
0.681306242942810059 -0.400461792945861816 0.108444884419441223
0.24058455228805542 0.727759838104248047 0.165234744548797607
-0.725789129734039307 -0.404319614171981812 -0.072660982608795166
-0.676217615604400635 -0.400461792945861816 -0.186449959874153137
-0.281286627054214478 0.055193532258272171 0.104572653770446777
-0.00821840763092041016 -0.404458105564117432 0.317820459604263306
0.752356767654418945 -0.380602419376373291 0.243070811033248901
-0.137650489807128906 0.318618088960647583 0.317849308252334595
-0.281286627054214478 0.216323256492614746 0.230198964476585388
-0.247617647051811218 0.0927440747618675232 0.0638228580355644226
-0.0291962809860706329 -0.0663102790713310242 -0.139730215072631836
0.673748373985290527 -0.400461792945861816 0.0131981922313570976
-0.206902459263801575 0.664823055267333984 0.317849308252334595
0.62639385461807251 -0.358375102281570435 -0.489127159118652344
0.274253517389297485 0.365631133317947388 0.253050506114959717
-0.360767394304275513 -0.0776577591896057129 -0.155998215079307556
-0.628397583961486816 -0.400461792945861816 0.0355832651257514954
-0.225297003984451294 0.431444674730300903 0.317849308252334595
-0.281286627054214478 0.656192779541015625 0.101141899824142456
-0.246258601546287537 0.79101109504699707 -0.0845367908477783203
-0.615965306758880615 -0.28108629584312439 -0.112752236425876617
-0.258438915014266968 -0.0647565796971321106 -0.171534925699234009
-0.067599855363368988 -0.408881455659866333 0.29256632924079895
-0.167238533496856689 -0.400461792945861816 -0.138504967093467712
0.138694658875465393 0.710407853126525879 0.317849308252334595
0.558679819107055664 -0.3814372718334198 -0.523880064487457275
-0.247617647051811218 0.467036277055740356 0.242233067750930786
-0.145956665277481079 -0.296019285917282104 -0.415382593870162964
-0.613830089569091797 -0.400461792945861816 0.156311109662055969
-0.497176468372344971 -0.400461792945861816 0.210924357175827026
-0.113215811550617218 0.00488212890923023224 -0.0861801281571388245
0.605960309505462646 -0.278992444276809692 -0.201880872249603271
0.288655608892440796 -0.0318279862403869629 -0.11803581565618515
0.184851735830307007 0.189031049609184265 0.317849308252334595
0.332921773195266724 -0.400461792945861816 -0.113434247672557831
-0.247617647051811218 0.591141939163208008 -0.0562893114984035492
0.266859173774719238 0.215698078274726868 0.317849308252334595
-0.266683518886566162 -0.0945305302739143372 0.284181296825408936
0.594457030296325684 -0.400461792945861816 -0.426765561103820801
-0.167264506220817566 -0.351895421743392944 -0.482433915138244629
-0.467561513185501099 -0.152865022420883179 -0.149564772844314575
-0.225835621356964111 0.589832961559295654 0.284180343151092529
-0.536758601665496826 -0.395411372184753418 -0.218140214681625366
0.144632846117019653 0.268477201461791992 0.284179359674453735
0.752356767654418945 -0.392520159482955933 -0.227553412318229675
-0.6596793532371521 -0.408881455659866333 0.299395143985748291
-0.725719869136810303 -0.400705128908157349 -0.292945623397827148
-0.0580395013093948364 -0.140369251370429993 0.284180343151092529
0.434724152088165283 -0.134692668914794922 0.130881905555725098
-0.0527822673320770264 0.0581994615495204926 0.317849308252334595
-0.0489723607897758484 -0.202387452125549316 -0.33669242262840271
0.314623415470123291 -0.124208025634288788 0.284179359674453735
-0.448945760726928711 -0.400461792945861816 -0.324036985635757446
-0.308030605316162109 -0.400461792945861816 -0.376653522253036499
-0.281286627054214478 0.822803497314453125 0.0491495430469512939
-0.274813681840896606 -0.238749504089355469 -0.346657693386077881
0.24058455228805542 0.639553546905517578 0.137477964162826538
-0.00559289753437042236 -0.336892187595367432 -0.498099863529205322
-0.104655742645263672 0.651865601539611816 0.284179359674453735
-0.0823334753513336182 0.465286761522293091 -0.119849309325218201
-0.281286627054214478 0.3887481689453125 0.120495341718196869
-0.458834081888198853 -0.208008259534835815 -0.309768587350845337
-0.637873291969299316 -0.400461792945861816 -0.0644890889525413513
0.382041186094284058 -0.253058284521102905 0.317849308252334595
0.624779880046844482 -0.360852688550949097 0.284179359674453735
-0.630903124809265137 -0.267893195152282715 -0.377479702234268188
0.436403453350067139 -0.135875687003135681 -0.195810437202453613
0.684611022472381592 -0.395411372184753418 -0.125879257917404175
0.575421035289764404 -0.240873157978057861 0.317849308252334595
-0.149629786610603333 0.759777367115020752 -0.119849309325218201
0.449031025171279907 -0.400461792945861816 -0.0777825042605400085
-0.29906463623046875 -0.168139472603797913 -0.261926412582397461
-0.281286627054214478 0.463064998388290405 0.289364457130432129
-0.238294839859008789 -0.341325163841247559 -0.46974867582321167
0.416706621646881104 -0.14571496844291687 0.217085704207420349
0.274253517389297485 0.369743824005126953 0.077785395085811615
0.139585286378860474 -0.359240710735321045 0.317849308252334595
-0.136031776666641235 -0.395411372184753418 -0.213974624872207642
-0.233856111764907837 -0.127796515822410583 0.317849308252334595
-0.196383178234100342 0.732018649578094482 0.317849308252334595
-0.247617647051811218 0.746524631977081299 0.104458197951316833
-0.666149437427520752 -0.400461792945861816 -0.325137287378311157
-0.518997907638549805 -0.359903395175933838 -0.523385763168334961
0.684138774871826172 -0.400461792945861816 -0.4636363685131073
0.0143432365730404854 -0.136116132140159607 -0.257167428731918335
-0.0727023333311080933 -0.395411372184753418 -0.317251443862915039
-0.250575214624404907 -0.408881455659866333 0.299043118953704834
-0.152542144060134888 -0.250072836875915527 0.284180343151092529
-0.548093497753143311 -0.20957791805267334 -0.103021979331970215
0.0212862268090248108 -0.400461792945861816 -0.229419291019439697
-0.296336948871612549 -0.032284073531627655 0.0970301702618598938
0.304568707942962646 -0.154919460415840149 -0.246062383055686951
0.0288619864732027054 -0.00471429107710719109 0.317849308252334595
-0.725719869136810303 -0.399108558893203735 -0.118833534419536591
0.274253517389297485 0.160727024078369141 -1.99071855604415759e-05
0.10486409068107605 0.324407190084457397 0.317849308252334595
-0.72361445426940918 -0.357320010662078857 -0.150840044021606445
-0.399370431900024414 -0.400461792945861816 -0.401090145111083984
0.0446057915687561035 0.419700026512145996 0.284180343151092529
0.716680467128753662 -0.333254635334014893 0.256646692752838135
-0.0871303826570510864 -0.334028899669647217 0.317849308252334595
-0.222759753465652466 -0.395411372184753418 0.0565179400146007538
0.241923391819000244 -0.400461792945861816 0.271321922540664673
-0.726032435894012451 -0.406132608652114868 0.103835918009281158
0.690358757972717285 -0.395411372184753418 0.182314485311508179
-0.122282765805721283 0.623193204402923584 -0.0861801281571388245
-0.407729476690292358 -0.260849893093109131 -0.40684846043586731
0.676401019096374512 -0.304887145757675171 -0.266431540250778198
0.130677998065948486 -0.395411372184753418 -0.163764983415603638
0.653450369834899902 -0.288725912570953369 0.203871458768844604
0.197497561573982239 -0.00888881832361221313 -0.0861801281571388245
0.179904207587242126 0.076050683856010437 0.284179359674453735
0.644203603267669678 -0.305924922227859497 -0.00400851760059595108
0.0330429598689079285 -0.408881455659866333 -0.492338627576828003
0.291533321142196655 -0.0575647652149200439 0.054974239319562912
0.36071699857711792 -0.115842238068580627 0.317849308252334595
-0.482859998941421509 -0.163639187812805176 0.210539653897285461
0.274253517389297485 0.683285892009735107 -0.0582674592733383179
0.657535195350646973 -0.315312176942825317 -0.185058310627937317
0.179124176502227783 -0.257351785898208618 -0.402650207281112671
0.0658046677708625793 -0.400461792945861816 -0.325123816728591919
-0.247617647051811218 0.326779961585998535 0.232672721147537231
0.113387621939182281 0.595736503601074219 -0.0861801281571388245
-0.456833541393280029 -0.290301352739334106 0.284180343151092529
-0.325436383485794067 -0.400461792945861816 -0.297727733850479126
-0.247617647051811218 0.709748983383178711 -0.0332546308636665344
0.49927094578742981 -0.203859031200408936 0.259664863348007202
-0.666788041591644287 -0.395411372184753418 0.243761390447616577
0.0464853532612323761 -0.222619041800498962 0.317849308252334595
-0.247617647051811218 0.463118851184844971 -0.0573173835873603821
0.148408904671669006 0.537526130676269531 0.284179359674453735
0.452347308397293091 -0.400461792945861816 -0.463490188121795654
-0.281286627054214478 0.152105405926704407 0.222593948245048523
-0.0676208212971687317 0.279247522354125977 -0.119849309325218201
-0.272963136434555054 0.83687669038772583 -0.0273543372750282288
0.592888414859771729 -0.395411372184753418 0.253310203552246094
0.274253517389297485 0.783546507358551025 0.275270134210586548
-0.0330914035439491272 0.432881593704223633 0.317849308252334595
0.576420307159423828 -0.23447813093662262 -0.361144423484802246
0.366640776395797729 -0.395411372184753418 0.0034608691930770874
-0.160866573452949524 -0.257961571216583252 -0.369713127613067627
-0.0388596430420875549 0.811856269836425781 -0.0861801281571388245
-0.528121590614318848 -0.263644903898239136 -0.37653234601020813
-0.71410602331161499 -0.326489299535751343 0.220061510801315308
-0.0859643891453742981 -0.0729574114084243774 -0.181376129388809204
-0.368162721395492554 -0.0828657448291778564 -0.00893950182944536209
-0.0477842427790164948 -0.248717650771141052 0.284180343151092529
0.349449455738067627 -0.0983508303761482239 0.0538421943783760071
0.116797223687171936 -0.162168577313423157 0.317849308252334595
0.117586858570575714 0.408950895071029663 -0.119849309325218201
0.232462093234062195 -0.0989990830421447754 -0.178957372903823853
-0.247093439102172852 -0.395411372184753418 0.124617666006088257
0.53757011890411377 -0.207118585705757141 -0.0525047965347766876
0.599102556705474854 -0.290928453207015991 -0.44294312596321106
0.467006176710128784 -0.181137323379516602 -0.094384610652923584
0.00891259033232927322 0.374524950981140137 0.284180343151092529
0.24058455228805542 0.654641389846801758 -0.00165978493168950081
0.424943506717681885 -0.127804219722747803 -0.0520821772515773773
0.524224042892456055 -0.395411372184753418 -0.404836356639862061
0.267280429601669312 0.267156630754470825 -0.119849309325218201
0.474693924188613892 -0.400461792945861816 0.255300194025039673
-0.597721695899963379 -0.244527086615562439 -0.183015435934066772
0.473763853311538696 -0.163643032312393188 0.316850006580352783
-0.537330925464630127 -0.204908356070518494 -0.339611530303955078
-0.565748393535614014 -0.222011193633079529 -0.237124338746070862
-0.0490919128060340881 -0.400461792945861816 -0.462079226970672607
0.0799763947725296021 -0.395411372184753418 -0.0070712934248149395
0.24058455228805542 0.483717828989028931 0.180700585246086121
-0.165419772267341614 -0.400461792945861816 0.189500123262405396
0.355234712362289429 -0.317137658596038818 -0.47439420223236084
-0.230478242039680481 0.695669174194335938 0.284179359674453735
0.499867290258407593 -0.342050373554229736 -0.470620065927505493
0.572065293788909912 -0.395411372184753418 0.146357372403144836
0.705274403095245361 -0.400461792945861816 -0.331665068864822388
-0.0273094102740287781 0.257021158933639526 -0.0861801281571388245
0.0075284554623067379 0.132619202136993408 -0.0861801281571388245
0.0413942225277423859 0.827911674976348877 0.317849308252334595
-0.281286627054214478 0.630702972412109375 -0.100300811231136322
-0.0435155518352985382 -0.395411372184753418 -0.116214536130428314
0.411309927701950073 -0.270825713872909546 -0.418820083141326904
-0.592588543891906738 -0.395411372184753418 -0.102442704141139984
0.24058455228805542 0.553826808929443359 0.0957798287272453308
0.132289990782737732 0.83687669038772583 -0.117035157978534698
-0.0471032820641994476 -0.29675602912902832 -0.416266471147537231
0.198664233088493347 0.0601953081786632538 -0.119849309325218201
0.273977488279342651 0.111307695508003235 -0.116355441510677338
-0.327593743801116943 -0.205828800797462463 -0.307152479887008667
0.236823886632919312 -0.389947354793548584 -0.523880064487457275
0.206360593438148499 -0.395411372184753418 -0.279529392719268799
0.391407281160354614 -0.400461792945861816 0.157658576965332031
-0.118544220924377441 -0.0373902097344398499 -0.138695120811462402
-0.725719869136810303 -0.37169995903968811 -0.198945730924606323
-0.229197114706039429 0.827427864074707031 -0.119849309325218201
-0.281286627054214478 0.372329175472259521 0.226097822189331055
0.266459047794342041 0.83687669038772583 0.254533618688583374
0.213410630822181702 0.056049346923828125 0.317849308252334595
-0.518642961978912354 -0.188838496804237366 0.299744278192520142
-0.43664136528968811 -0.400461792945861816 -0.0190649144351482391
-0.075490996241569519 0.588709592819213867 -0.0861801281571388245
-0.577715218067169189 -0.395411372184753418 -0.464711695909500122
0.0857235714793205261 -0.350426733493804932 0.317849308252334595
0.568345963954925537 -0.395411372184753418 -0.220435082912445068
-0.281286627054214478 0.109152674674987793 -0.0256342422217130661
0.603581726551055908 -0.253606498241424561 -0.0416817851364612579
-0.230082958936691284 -0.400461792945861816 -0.146726027131080627
-0.143383815884590149 0.246556669473648071 0.284180343151092529
-0.418663322925567627 -0.118429496884346008 -0.037027508020401001
-0.247617647051811218 0.207793012261390686 0.0271386187523603439
-0.080931834876537323 0.0991791337728500366 0.284180343151092529
-0.247617647051811218 0.491603732109069824 0.0945535227656364441
-0.288076967000961304 -0.400461792945861816 -0.0358384326100349426
0.293835908174514771 -0.400461792945861816 -0.314820945262908936
0.24058455228805542 0.53372502326965332 0.0140926754102110863
-0.323288679122924805 -0.0512641705572605133 0.272553056478500366
0.517079770565032959 -0.216400980949401855 0.135415837168693542
-0.264306902885437012 0.826671898365020752 0.317849308252334595
0.274253517389297485 0.170989498496055603 -0.0859029293060302734
-0.0896350294351577759 0.192327156662940979 -0.119849309325218201
0.248101070523262024 -0.400461792945861816 -0.0414340272545814514
-0.149724051356315613 -0.363908380270004272 0.284180343151092529
-0.333221256732940674 -0.120455056428909302 0.284181296825408936
-0.337392598390579224 -0.400461792945861816 0.00580960186198353767
-0.35157349705696106 -0.395411372184753418 0.261535555124282837
-0.308024823665618896 -0.349787145853042603 0.317849308252334595
-0.281286627054214478 0.0787752866744995117 0.196776211261749268
-0.221428617835044861 0.124958425760269165 -0.0861801281571388245
-0.535957455635070801 -0.395411372184753418 -0.021459043025970459
0.691542744636535645 -0.400461792945861816 0.272480934858322144
-0.121582560241222382 0.508714199066162109 -0.119849309325218201
-0.281286627054214478 0.717241466045379639 0.246709331870079041
-0.19397290050983429 0.45985063910484314 -0.0861801281571388245
-0.205230847001075745 0.0996534973382949829 0.284181296825408936
0.0939043089747428894 -0.040987841784954071 -0.109343141317367554
0.209902927279472351 -0.172725364565849304 0.284179359674453735
0.200802326202392578 -0.395411372184753418 -0.3439674973487854
-0.281286627054214478 0.348224371671676636 0.103056855499744415
0.45980420708656311 -0.395411372184753418 0.0109466090798377991
0.274253517389297485 0.470145821571350098 0.309756666421890259
-0.681835532188415527 -0.30376279354095459 0.143814355134963989
-0.460424929857254028 -0.395411372184753418 -0.459443897008895874
0.0640856325626373291 -0.395411372184753418 0.0476972237229347229
-0.0884786471724510193 0.352997839450836182 0.317849308252334595
0.24058455228805542 0.035682331770658493 0.172010675072669983
0.546350419521331787 -0.21330299973487854 0.0348378680646419525
-0.281286627054214478 0.451221317052841187 -0.0280317403376102448
-0.576743841171264648 -0.395411372184753418 0.25855591893196106
-0.69530564546585083 -0.336959511041641235 -0.0625388398766517639
-0.247617647051811218 0.538482129573822021 0.263077348470687866
0.460735231637954712 -0.181495115160942078 -0.311621993780136108
0.274253517389297485 0.0169006157666444778 0.230058535933494568
-0.372099369764328003 -0.395411372184753418 -0.432402700185775757
-0.401305586099624634 -0.10620589554309845 0.279903173446655273
0.205569043755531311 -0.400461792945861816 -0.174454882740974426
0.240225791931152344 0.705990254878997803 0.280918866395950317
-0.493258029222488403 -0.194671854376792908 -0.235281527042388916
-0.281286627054214478 0.804401278495788574 0.18862682580947876
-0.344030022621154785 -0.243914395570755005 0.284180343151092529
0.35286673903465271 -0.400461792945861816 -0.2584514319896698
0.146336197853088379 -0.400461792945861816 -0.058242451399564743
-0.216488778591156006 -0.243375793099403381 0.317849308252334595
0.290573447942733765 -0.395411372184753418 -0.125429987907409668
0.218859270215034485 -0.395411372184753418 0.0557686910033226013
-0.0656217113137245178 -0.400461792945861816 -0.174960106611251831
-0.247617647051811218 0.629517078399658203 0.230201855301856995
-0.175838053226470947 -0.102291345596313477 -0.182907909154891968
0.398104339838027954 -0.186343580484390259 -0.283771932125091553
0.0676998123526573181 -0.395411372184753418 -0.450280755758285522
0.671094775199890137 -0.301151484251022339 0.076483115553855896
0.24058455228805542 0.401293963193893433 0.275639474391937256
-0.222125932574272156 0.703428030014038086 -0.0861801281571388245
-0.443547159433364868 -0.395411372184753418 -0.106794744729995728
-0.481885701417922974 -0.162952452898025513 0.152403280138969421
-0.137332141399383545 -0.046826489269733429 0.284180343151092529
0.169687896966934204 -0.400461792945861816 -0.0936247482895851135
-0.333466529846191406 -0.254204750061035156 -0.365204185247421265
0.225741952657699585 0.765278875827789307 0.317849308252334595
0.314100205898284912 -0.400461792945861816 -0.236854061484336853
-0.0316509045660495758 -0.400461792945861816 -0.0162726975977420807
-0.281286627054214478 0.726589322090148926 0.100268572568893433
-0.224553525447845459 -0.0537229292094707489 0.284181296825408936
-0.627099156379699707 -0.265215516090393066 -0.267732858657836914
-0.0920630991458892822 -0.161856964230537415 0.317849308252334595
-0.194740414619445801 -0.400461792945861816 -0.400156229734420776
-0.664702832698822021 -0.351855009794235229 0.284181296825408936
-0.45361819863319397 -0.325166821479797363 0.317849308252334595
0.440578639507293701 -0.162526383996009827 0.013043341226875782
0.147002741694450378 0.64065098762512207 0.317849308252334595
-0.492570400238037109 -0.194188058376312256 0.112435422837734222
-0.06510964035987854 0.51794278621673584 0.317849308252334595
-0.281286627054214478 0.729845941066741943 0.0181870777159929276
-0.40006294846534729 -0.405680567026138306 0.28426593542098999
0.162750393152236938 0.217331230640411377 0.284179359674453735
-0.270302772521972656 0.5168914794921875 -0.119849309325218201
-0.247617647051811218 0.552028179168701172 0.146744027733802795
0.24058455228805542 0.313831150531768799 0.132498696446418762
0.250070840120315552 -0.224756196141242981 -0.329866468906402588
0.256706327199935913 0.83687669038772583 0.159505262970924377
0.0726290643215179443 -0.252637028694152832 0.284180343151092529
0.427301883697509766 -0.206513598561286926 0.284179359674453735
0.00737649016082286835 0.232901915907859802 -0.119849309325218201
0.00657722866162657738 0.67990797758102417 -0.119849309325218201
0.274253517389297485 0.565596401691436768 0.260046690702438354
-0.442029416561126709 -0.158595472574234009 0.265267372131347656
0.498968958854675293 -0.179935067892074585 -0.0108409961685538292
0.705000340938568115 -0.325027346611022949 -0.30389675498008728
0.116357669234275818 0.237101167440414429 -0.119849309325218201
0.67531132698059082 -0.304120570421218872 0.155010730028152466
0.514967620372772217 -0.395411372184753418 -0.267060548067092896
-0.341160982847213745 -0.400461792945861816 -0.139750897884368896
-0.247617647051811218 0.485797315835952759 -0.00136066111735999584
0.141363665461540222 0.527839720249176025 -0.0861801281571388245
0.195250779390335083 -0.278969347476959229 0.317849308252334595
0.0351797044277191162 0.329879879951477051 -0.119849309325218201
-0.246888577938079834 -0.000944684841670095921 -0.0836880877614021301
-0.0723538696765899658 -0.176660105586051941 -0.305820375680923462
0.523153543472290039 -0.403856992721557617 0.317848354578018188
-0.0890027359127998352 -0.253290086984634399 0.317849308252334595
-0.293309181928634644 -0.164553850889205933 0.317849308252334595
-0.46249854564666748 -0.14929962158203125 -0.21733228862285614
0.244140356779098511 0.6699485182762146 0.317849308252334595
-0.0647495388984680176 0.0232236161828041077 -0.119849309325218201
0.186011672019958496 0.638349354267120361 -0.119849309325218201
0.496121078729629517 -0.393120348453521729 -0.490210145711898804
-0.229633793234825134 0.146036401391029358 -0.119849309325218201
0.136311307549476624 0.756966948509216309 0.284179359674453735
-0.123621590435504913 -0.400461792945861816 -0.273876875638961792
0.266937077045440674 -0.400461792945861816 0.158209696412086487
-0.266134351491928101 0.291182577610015869 0.317849308252334595
0.274253517389297485 0.162563115358352661 0.238324299454689026
0.316091150045394897 -0.395411372184753418 0.243463218212127686
-0.247617647051811218 0.429780721664428711 0.201376527547836304
0.487650424242019653 -0.395411372184753418 0.202540293335914612
0.632706224918365479 -0.400461792945861816 -0.251341760158538818
0.491039842367172241 -0.395411372184753418 0.0690493062138557434
-0.281286627054214478 0.33242189884185791 0.0348359495401382446
0.168072059750556946 -0.395411372184753418 0.192739516496658325
0.00495842285454273224 0.644094228744506836 0.317849308252334595
-0.498896151781082153 -0.395411372184753418 -0.446371018886566162
0.750332176685333252 -0.357419073581695557 0.00699935341253876686
0.384574621915817261 -0.400461792945861816 -0.168576031923294067
0.500915646553039551 -0.246346816420555115 -0.389444619417190552
0.414152085781097412 -0.408881455659866333 0.301399558782577515
-0.290219873189926147 -0.395411372184753418 0.0677874311804771423
-0.232474952936172485 -0.178396180272102356 -0.307903647422790527
0.177125543355941772 -0.345101207494735718 -0.474280685186386108
0.0186781920492649078 -0.400461792945861816 0.094478510320186615
0.339535146951675415 -0.218031242489814758 0.317849308252334595
-0.438527464866638184 -0.211389005184173584 0.284181296825408936
-0.211599931120872498 -0.395411372184753418 -0.314682453870773315
0.274253517389297485 0.621037781238555908 0.258958905935287476
-0.114937447011470795 0.813145995140075684 -0.0861801281571388245
0.206142276525497437 0.789264380931854248 -0.0861801281571388245
-0.281286627054214478 0.410453230142593384 -0.00668714474886655807
-0.524749517440795898 -0.216849178075790405 -0.0571762882173061371
0.131750419735908508 -0.0936062410473823547 -0.206155151128768921
-0.281286627054214478 0.575661718845367432 0.180355295538902283
-0.109945677220821381 0.13036857545375824 0.317849308252334595
-0.426117300987243652 -0.242883339524269104 -0.351617723703384399
0.0232913978397846222 -0.192950218915939331 -0.325368106365203857
0.496080636978149414 -0.395411372184753418 -0.181433454155921936
0.0298992954194545746 0.276706427335739136 -0.0861801281571388245
-0.247617647051811218 0.59715425968170166 0.0410761423408985138
-0.405516356229782104 -0.400461792945861816 0.0584319382905960083
-0.623567402362823486 -0.286439687013626099 -0.0602302141487598419
0.752356767654418945 -0.39014163613319397 -0.442413181066513062
0.226666256785392761 0.801843822002410889 0.284179359674453735
-0.345077425241470337 -0.400461792945861816 0.189234673976898193
0.4634590744972229 -0.321172446012496948 -0.479235917329788208
0.0542188510298728943 0.493155092000961304 -0.119849309325218201
0.0812396332621574402 -0.332035064697265625 -0.492271304130554199
0.149196624755859375 0.166883543133735657 -0.0861801281571388245
0.353651583194732666 -0.101310305297374725 0.0045275161974132061
-0.325376778841018677 -0.400461792945861816 -0.100209653377532959
-0.680439949035644531 -0.302779823541641235 -0.277680814266204834
0.288705617189407349 -0.395411372184753418 -0.390405416488647461
0.180071562528610229 0.415901869535446167 0.284179359674453735
-0.247617647051811218 0.517563760280609131 0.203699260950088501
-0.247617647051811218 0.126353040337562561 0.10153430700302124
0.349473506212234497 -0.131765887141227722 -0.21827775239944458
0.0235920585691928864 -0.400461792945861816 -0.290938347578048706
0.24058455228805542 0.0232057180255651474 0.0773487389087677002
-0.202061697840690613 0.00762871047481894493 -0.119849309325218201
-0.513055920600891113 -0.395411372184753418 -0.0994303002953529358
0.423963457345962524 -0.150825992226600647 0.0545356646180152893
-0.698413193225860596 -0.400461792945861816 0.284118771553039551
-0.438155263662338257 -0.400461792945861816 -0.256765365600585938
0.54496157169342041 -0.395411372184753418 -0.0172659512609243393
0.751947999000549316 -0.407842725515365601 -0.0833660736680030823
-0.0909026786684989929 0.779585719108581543 -0.119849309325218201
0.274253517389297485 0.517714798450469971 0.0885903239250183105
0.274253517389297485 0.515583455562591553 -0.011903407983481884
-0.247617647051811218 0.762787818908691406 0.264173805713653564
-0.247617647051811218 0.261742621660232544 0.0841313824057579041
0.718687832355499268 -0.372430950403213501 -0.264809906482696533
-0.667057394981384277 -0.293355077505111694 -0.17106182873249054
-0.551829218864440918 -0.408881455659866333 0.304926484823226929
0.231873467564582825 0.00614584563300013542 -0.119849309325218201
-0.0675714835524559021 0.64639967679977417 0.317849308252334595
0.546201348304748535 -0.283605247735977173 0.317849308252334595
0.274253517389297485 0.13246724009513855 0.0731321722269058228
0.233029559254646301 -0.400461792945861816 -0.436090260744094849
0.353100478649139404 -0.343057364225387573 0.284179359674453735
0.0989480242133140564 0.668329775333404541 -0.0861801281571388245
0.562557816505432129 -0.395411372184753418 0.0726570487022399902
0.0399420894682407379 -0.395411372184753418 0.217730119824409485
0.674102306365966797 -0.395411372184753418 -0.187777727842330933
-0.0860136300325393677 -0.22377033531665802 -0.362353414297103882
0.347820162773132324 -0.0734929516911506653 0.197617784142494202
-0.756440877914428711 -0.408742964267730713 0.26436808705329895
-0.139519289135932922 0.171180903911590576 0.284181296825408936
0.24058455228805542 0.441514760255813599 0.036218058317899704
-0.0307088196277618408 0.0882518589496612549 -0.0861801281571388245
0.340349823236465454 -0.0682316794991493225 -0.0327543020248413086
-0.281286627054214478 0.381068140268325806 0.298944056034088135
-0.0800765976309776306 0.397592931985855103 -0.0861801281571388245
0.11189008504152298 0.124380379915237427 0.317849308252334595
0.274253517389297485 0.306053996086120605 -0.0288664866238832474
-0.568823337554931641 -0.24788762629032135 0.206964626908302307
0.274253517389297485 0.539214074611663818 -0.0718335360288619995
0.24058455228805542 0.245322689414024353 0.0171598717570304871
0.117199249565601349 -0.400461792945861816 -0.211491242051124573
0.112018965184688568 0.47125476598739624 0.317849308252334595
-0.00187695014756172895 -0.400461792945861816 0.264104545116424561
0.167862385511398315 0.0404471196234226227 -0.0861801281571388245
0.134087607264518738 -0.194397732615470886 0.284179359674453735
-0.116010822355747223 -0.140270188450813293 -0.228482499718666077
-0.125197038054466248 0.672795474529266357 -0.0861801281571388245
-0.356862455606460571 -0.0749078616499900818 0.0429083928465843201
-0.321507424116134644 -0.0655409246683120728 -0.172476261854171753
0.24058455228805542 0.551856040954589844 0.142681345343589783
0.569972395896911621 -0.395411372184753418 -0.0655687227845191956
-0.2876758873462677 -0.0261847842484712601 0.0263018421828746796
-0.731434881687164307 -0.408881455659866333 -0.406418532133102417
-0.0657694414258003235 0.203301370143890381 0.317849308252334595
0.000807729549705982208 0.425310254096984863 -0.119849309325218201
0.605433225631713867 -0.278621166944503784 0.120730042457580566
-0.247617647051811218 0.243280768394470215 0.269961953163146973
-0.281286627054214478 0.00818330701440572739 0.271239221096038818
-0.593009889125823975 -0.395411372184753418 -0.425037205219268799
-0.382136791944503784 -0.116417393088340759 -0.179803863167762756
-0.247617647051811218 0.836405396461486816 0.0150640998035669327
-0.0676028430461883545 -0.395411372184753418 0.0646702125668525696
0.274253517389297485 -0.00637936964631080627 0.0141811612993478775
0.274253517389297485 0.731356918811798096 0.255092442035675049
-0.168900534510612488 0.514026284217834473 0.317849308252334595
-0.0349681749939918518 0.308347910642623901 0.317849308252334595
-0.356908619403839111 -0.395411372184753418 0.0506047606468200684
0.274253517389297485 0.557002663612365723 -0.0273583773523569107
-0.281286627054214478 0.335673779249191284 -0.0774984806776046753
-0.675208687782287598 -0.322806566953659058 -0.0200910661369562149
-0.528716981410980225 -0.395411372184753418 0.247446060180664062
-0.268764853477478027 -0.395411372184753418 -0.357708841562271118
-0.138940274715423584 -0.400461792945861816 0.0827531144022941589
0.177000507712364197 0.83687669038772583 0.300041466951370239
0.585125625133514404 -0.240608677268028259 -0.254259884357452393
0.573857128620147705 -0.232673779129981995 0.0754962936043739319
0.155431047081947327 0.303148359060287476 -0.0861801281571388245
-0.12383512407541275 -0.339463084936141968 -0.501185297966003418
0.0800790190696716309 0.310536026954650879 -0.119849309325218201
0.269139587879180908 -0.395411372184753418 0.00339835300110280514
0.150686457753181458 -0.306124985218048096 -0.461178988218307495
-0.1101842001080513 0.70197373628616333 0.284179359674453735
-0.411469936370849609 -0.259996771812438965 0.284180343151092529
-0.602243185043334961 -0.271422058343887329 -0.338318824768066406
0.0863321051001548767 -0.404498517513275146 -0.490240931510925293
0.0900045707821846008 0.0636994540691375732 -0.119849309325218201
-0.609994411468505859 -0.253170818090438843 0.28403317928314209
0.602731525897979736 -0.400461792945861816 0.205845057964324951
0.0329166725277900696 0.327123343944549561 0.317849308252334595
0.357884466648101807 -0.080580495297908783 0.150515258312225342
-0.398284554481506348 -0.395411372184753418 -0.0484832003712654114
0.616345822811126709 -0.262595564126968384 0.0778075233101844788
-0.241301432251930237 -0.400461792945861816 0.242673575878143311
0.328723490238189697 -0.204088896512985229 -0.338735312223434448
0.644021809101104736 -0.395411372184753418 0.0649491250514984131
-0.138840258121490479 -0.400461792945861816 -0.00274566537700593472
0.141211703419685364 0.675143241882324219 0.284179359674453735
-0.556616067886352539 -0.322252541780471802 0.284181296825408936
-0.182022467255592346 0.426519244909286499 0.284180343151092529
-0.0625467151403427124 -0.395411372184753418 0.229492992162704468
0.33412596583366394 -0.0875593647360801697 -0.0757285654544830322
-0.317508220672607422 -0.400461792945861816 -0.230175286531448364
-0.12947419285774231 -0.166880473494529724 -0.294084429740905762
-0.724616706371307373 -0.395411372184753418 -0.335426688194274902
-0.281286627054214478 0.0643990710377693176 -0.0858828350901603699
0.24058455228805542 0.646548748016357422 -0.0493978746235370636
0.157011300325393677 -0.0965166687965393066 0.284179359674453735
-0.281286627054214478 0.567522883415222168 0.0590926893055438995
-0.487530499696731567 -0.190639004111289978 -0.127033695578575134
-0.0077204420231282711 -0.318086028099060059 -0.4418620765209198
-0.268031954765319824 0.233906030654907227 -0.119849309325218201
0.116779908537864685 0.360490292310714722 -0.119849309325218201
0.24058455228805542 0.492146164178848267 -0.00887689180672168732
0.274253517389297485 0.00885237846523523331 -0.0964063107967376709
0.625691711902618408 -0.26917719841003418 0.237870320677757263
0.214866816997528076 0.0986124351620674133 0.284179359674453735
0.0127729913219809532 0.040647558867931366 0.284180343151092529
0.287524521350860596 -0.169337883591651917 0.317849308252334595
-0.380897015333175659 -0.343009293079376221 0.317849308252334595
0.0946150869131088257 0.262214869260787964 0.317849308252334595
-0.406033813953399658 -0.295422017574310303 -0.448335021734237671
-0.158394724130630493 0.802298784255981445 0.317849308252334595
0.542503178119659424 -0.234304994344711304 0.25392189621925354
0.0952845066785812378 -0.159343749284744263 -0.285039603710174561
0.343693047761917114 -0.395411372184753418 -0.451653242111206055
0.24058455228805542 0.378539532423019409 -0.0438850894570350647
0.274253517389297485 0.57880103588104248 0.312444925308227539
-0.162877708673477173 0.242640212178230286 -0.119849309325218201
0.244962692260742188 -0.0611605718731880188 -0.167219787836074829
-0.247617647051811218 0.0310614295303821564 0.246366918087005615
-0.126775354146957397 0.359678536653518677 0.284180343151092529
0.219229564070701599 0.836403489112854004 -0.0861801281571388245
-0.223823517560958862 0.816817283630371094 0.284179359674453735
0.0657689869403839111 -0.195021003484725952 0.284180343151092529
0.112925946712493896 -0.321270525455474854 0.284180343151092529
-0.0358058139681816101 -0.395411372184753418 -0.365343660116195679
-0.127372637391090393 0.318100631237030029 -0.0861801281571388245
-0.187254682183265686 -0.194366008043289185 0.284180343151092529
0.233953848481178284 0.257232725620269775 0.317849308252334595
0.24058455228805542 0.656288027763366699 0.204970777034759521
0.24058455228805542 0.527605116367340088 0.23744712769985199
-0.173454686999320984 0.33282780647277832 -0.119849309325218201
0.24058455228805542 0.802060246467590332 -0.0303930696099996567
-0.0501072928309440613 0.457243174314498901 -0.0861801281571388245
0.274253517389297485 0.247023150324821472 -0.0719370320439338684
-0.0814652517437934875 0.75300145149230957 0.317849308252334595
-0.281286627054214478 0.697251260280609131 0.137323126196861267
-0.214600756764411926 -0.360324680805206299 0.284180343151092529
-0.754774093627929688 -0.355128020048141479 0.228325366973876953
0.0946708694100379944 0.144735068082809448 -0.0861801281571388245
-0.281286627054214478 0.3976593017578125 0.0799658074975013733
0.24058455228805542 0.798530459403991699 0.0731485262513160706
0.207659035921096802 0.536732614040374756 0.284179359674453735
0.24058455228805542 -0.0101696550846099854 0.25548100471496582
0.201431334018707275 0.390079319477081299 0.317849308252334595
-0.1356220543384552 0.0775274410843849182 -0.0861801281571388245
-0.247617647051811218 0.284291207790374756 0.0175455622375011444
-0.281286627054214478 0.0152312684804201126 0.131746560335159302
-0.733871161937713623 -0.340406626462936401 -0.325323879718780518
0.711814761161804199 -0.353538185358047485 -0.0755215883255004883
-0.0744946599006652832 0.279932290315628052 0.317849308252334595
0.118224531412124634 0.598745048046112061 0.317849308252334595
-0.281286627054214478 0.206270456314086914 0.14159354567527771
0.274253517389297485 0.0586038082838058472 0.148299247026443481
0.639929294586181641 -0.395411372184753418 -0.0990523174405097961
0.127667546272277832 0.723333597183227539 -0.0861801281571388245
0.018563929945230484 -0.0968427136540412903 -0.210037946701049805
-0.108075924217700958 -0.380154252052307129 0.284180343151092529
0.155312731862068176 0.210935220122337341 -0.119849309325218201
0.526334285736083984 -0.395411372184753418 -0.333712726831436157
0.0516338050365447998 0.540416300296783447 -0.119849309325218201
-0.281286627054214478 0.617523372173309326 0.127544432878494263
0.00719913328066468239 0.409027844667434692 0.317849308252334595
-0.608712315559387207 -0.395411372184753418 -0.279251426458358765
-0.619834601879119873 -0.28381010890007019 -0.214721947908401489
0.274253517389297485 0.185087651014328003 0.161035493016242981
-0.31557115912437439 -0.0695401206612586975 -0.0269813518971204758
-0.281286627054214478 0.107918776571750641 0.0211119279265403748
-0.321537226438522339 -0.289759844541549683 0.284180343151092529
0.34147992730140686 -0.363087952136993408 -0.523844480514526367
-0.576681256294250488 -0.332659274339675903 -0.459349602460861206
0.535420477390289307 -0.211313024163246155 -0.347404032945632935
0.0359380915760993958 0.265109926462173462 0.284180343151092529
0.141561806201934814 -0.355092465877532959 -0.519940555095672607
0.238096356391906738 0.112630568444728851 -0.0854491516947746277
0.445519447326660156 -0.166005223989486694 -0.230144530534744263
0.617000818252563477 -0.286767661571502686 -0.115845300257205963
0.274253517389297485 0.673407137393951416 0.0244022756814956665
-0.208495214581489563 -0.221739962697029114 -0.359916180372238159
-0.385182827711105347 -0.399056613445281982 -0.523880064487457275
0.668558478355407715 -0.299363493919372559 -0.35911405086517334
-0.255147606134414673 0.707127153873443604 -0.119849309325218201
-0.281286627054214478 0.628538906574249268 -0.05385575070977211
-0.583269655704498291 -0.343102574348449707 -0.505552828311920166
0.206730887293815613 -0.226722121238708496 0.284179359674453735
-0.73370671272277832 -0.408881455659866333 0.0395747609436511993
0.752356767654418945 -0.366468697786331177 0.132476568222045898
-0.627721488475799561 -0.400461792945861816 0.219356521964073181
-0.459382325410842896 -0.257795184850692749 -0.403183043003082275
0.224165558815002441 0.770142734050750732 -0.119849309325218201
0.130996361374855042 0.140748396515846252 -0.119849309325218201
-0.659437000751495361 -0.311699599027633667 -0.0770419090986251831
-0.234293729066848755 0.23906998336315155 -0.0861801281571388245
0.60253143310546875 -0.400461792945861816 -0.478964686393737793
0.0823804363608360291 0.83687669038772583 0.298356384038925171
-0.459978640079498291 -0.395411372184753418 0.257797986268997192
-0.0344267748296260834 0.580583274364471436 0.284180343151092529
0.356083035469055176 -0.380500465631484985 0.317849308252334595
-0.154297441244125366 -0.127179041504859924 0.317849308252334595
0.252649456262588501 -0.0301820524036884308 -0.0850688591599464417
-0.252940267324447632 -0.400461792945861816 -0.0876334160566329956
0.24058455228805542 0.762950360774993896 0.122871965169906616
-0.464943498373031616 -0.368571221828460693 -0.49020916223526001
-0.144357159733772278 0.448631167411804199 0.317849308252334595
0.24058455228805542 0.400920778512954712 0.0766341164708137512
-0.247617647051811218 0.639409244060516357 -0.00701493257656693459
0.294395655393600464 -0.0358701683580875397 0.108403533697128296
0.0660703182220458984 0.341290712356567383 -0.0861801281571388245
-0.112108781933784485 -0.395411372184753418 -0.0462566167116165161
0.439028233289718628 -0.233483627438545227 -0.340340554714202881
0.41118970513343811 -0.395411372184753418 -0.346221983432769775
0.191123679280281067 -0.00415528984740376472 0.317849308252334595
0.0512804388999938965 -0.0284610893577337265 0.284180343151092529
-0.385109752416610718 -0.1453590989112854 -0.268258988857269287
0.187361091375350952 -0.408881455659866333 0.287972748279571533
0.0454758405685424805 -0.400461792945861816 -0.133042022585868835
-0.630806922912597656 -0.301732420921325684 0.284181296825408936
0.130236536264419556 0.0749544203281402588 0.284179359674453735
0.264521002769470215 -0.311385095119476318 0.317849308252334595
0.58214116096496582 -0.238508090376853943 0.212321877479553223
-0.200614169239997864 -0.402599900960922241 -0.49020916223526001
-0.233657017350196838 -0.324034780263900757 0.317849308252334595
-0.728399455547332764 -0.408881455659866333 -0.215198993682861328
-0.281286627054214478 0.478511601686477661 0.131698459386825562
-0.0258152447640895844 0.476207107305526733 -0.119849309325218201
0.270218759775161743 -0.395411372184753418 -0.196925550699234009
0.274253517389297485 0.409376978874206543 0.240121901035308838
-0.417362004518508911 -0.400461792945861816 -0.349458485841751099
0.431101977825164795 -0.395411372184753418 -0.19975048303604126
0.141858026385307312 -0.400461792945861816 -0.409622311592102051
-0.610795557498931885 -0.253734439611434937 -0.0265028495341539383
0.227362588047981262 0.610701262950897217 -0.119849309325218201
-0.583215773105621338 -0.395411372184753418 0.0311897378414869308
0.274253517389297485 0.48950505256652832 0.0226373579353094101
-0.281286627054214478 0.280166983604431152 0.24996502697467804
0.111159108579158783 0.523432731628417969 -0.119849309325218201
0.274253517389297485 0.510280072689056396 0.212184339761734009
0.24058455228805542 0.0807689130306243896 0.22754630446434021
0.274253517389297485 0.353839397430419922 0.0346580147743225098
-0.25189286470413208 -0.357354611158370972 -0.522165179252624512
0.698512017726898193 -0.320457816123962402 -0.45388367772102356
-0.724203050136566162 -0.400461792945861816 -0.0279223788529634476
0.666379034519195557 -0.302461475133895874 0.317849308252334595
0.385993272066116333 -0.100375428795814514 0.120860837399959564
0.0817250609397888184 0.0956291034817695618 0.284180343151092529
0.448907911777496338 -0.144681021571159363 0.0889336913824081421
-0.53984600305557251 -0.227480977773666382 -0.184989064931869507
0.274253517389297485 0.614859163761138916 -0.0439453944563865662
0.274253517389297485 0.743076562881469727 0.209789440035820007
0.135203301906585693 0.323303014039993286 0.284179359674453735
-0.0926121994853019714 -0.192124038934707642 0.284180343151092529
-0.537757933139801025 -0.259446620941162109 0.284181296825408936
-0.146487578749656677 0.641315579414367676 -0.119849309325218201
-0.163976088166236877 -0.322587251663208008 -0.447263568639755249
0.667205154895782471 -0.298411279916763306 -0.135157212615013123
0.229155406355857849 0.147402167320251465 0.284179359674453735
-0.0460783801972866058 0.381846249103546143 -0.119849309325218201
0.684661030769348145 -0.400461792945861816 -0.291467338800430298
-0.0778570324182510376 0.231624633073806763 -0.0861801281571388245
0.0307508762925863266 0.718042671680450439 -0.119849309325218201
-0.163264364004135132 0.224032148718833923 0.317849308252334595
-0.318616241216659546 -0.0479743108153343201 0.13720385730266571
0.681453406810760498 -0.400461792945861816 -0.369935333728790283
-0.281286627054214478 0.453147798776626587 0.0399402566254138947
0.24058455228805542 -0.0122645646333694458 0.0462814345955848694
-0.221973001956939697 -0.395411372184753418 0.175274074077606201
0.389540404081344604 -0.395411372184753418 0.0798580944538116455
-0.12970598042011261 -0.400461792945861816 -0.484272897243499756
0.504088640213012695 -0.395411372184753418 -0.11348416656255722
-0.116793729364871979 0.606484711170196533 0.317849308252334595
0.062943585216999054 -0.400461792945861816 0.269298315048217773
-0.0164218619465827942 0.0872761085629463196 0.284180343151092529
0.274253517389297485 0.25081169605255127 0.135062873363494873
-0.118536524474620819 0.538155138492584229 -0.0861801281571388245
0.591836154460906982 -0.269070446491241455 -0.378300130367279053
-0.722666084766387939 -0.356437057256698608 0.0533160939812660217
0.482047945261001587 -0.242843911051750183 0.284179359674453735
0.24058455228805542 0.141260072588920593 -0.0303962454199790955
0.752327919006347656 -0.367996037006378174 -0.519073903560638428
0.634564399719238281 -0.395411372184753418 -0.448186904191970825
0.752356767654418945 -0.372850269079208374 0.290858149528503418
-0.0127790896221995354 -0.395411372184753418 -0.487652719020843506
0.287487953901290894 -0.0547160878777503967 0.191719993948936462
-0.474535584449768066 -0.181487426161766052 -0.185116499662399292
-0.196109071373939514 -0.400461792945861816 -0.00289762765169143677
0.225315883755683899 0.167481794953346252 -0.0861801281571388245
-0.244930356740951538 0.497542858123779297 -0.0855754390358924866
0.525983214378356934 -0.408881455659866333 -0.510946691036224365
0.0240040011703968048 0.119630008935928345 0.284180343151092529
0.0550435967743396759 -0.109196148812770844 0.317849308252334595
0.179698362946510315 -0.382829040288925171 -0.523880064487457275
0.203640609979629517 0.652041614055633545 0.284179359674453735
0.0683249831199645996 0.0516851544380187988 0.284180343151092529
0.252396494150161743 0.410608083009719849 -0.119849309325218201
-0.299030005931854248 -0.0578913949429988861 0.0605661794543266296
-0.412714540958404541 -0.395411372184753418 -0.138793125748634338
-0.612498939037322998 -0.400461792945861816 -0.323663800954818726
-0.536820173263549805 -0.225350573658943176 0.241439595818519592
0.219233408570289612 -0.102656833827495575 -0.217015862464904785
-0.116791814565658569 -0.395411372184753418 0.182395279407501221
-0.513613700866699219 -0.209007576107978821 0.0223093833774328232
-0.555184900760650635 -0.395411372184753418 0.102134473621845245
-0.595289349555969238 -0.349062889814376831 0.284181296825408936
-0.265862137079238892 -0.156239047646522522 -0.281314492225646973
-0.321815222501754761 -0.377434253692626953 0.284180343151092529
-0.436805844306945801 -0.400461792945861816 0.0272040143609046936
0.274230450391769409 -0.276879340410232544 -0.392413675785064697
0.709298610687255859 -0.395411372184753418 0.0732187405228614807
-0.719853818416595459 -0.354246050119400024 -0.368995636701583862
-0.0588283725082874298 -0.0359982848167419434 0.284180343151092529
0.283221423625946045 -0.391533344984054565 0.284180343151092529
-0.247617647051811218 0.763970851898193359 0.172116473317146301
-0.630103826522827148 -0.325880497694015503 -0.45121467113494873
-0.235027596354484558 0.259849786758422852 0.317849308252334595
0.45605701208114624 -0.262128144502639771 -0.408382534980773926
-0.0497032366693019867 0.675009548664093018 -0.0861801281571388245
-0.0131448926404118538 0.702197849750518799 0.317849308252334595
-0.079738520085811615 -0.395411372184753418 -0.361417561769485474
0.320825159549713135 -0.400461792945861816 -0.0714072659611701965
-0.281286627054214478 0.787232100963592529 0.0961270332336425781
0.752356767654418945 -0.380602419376373291 -0.149583250284194946
0.208586215972900391 -0.346920937299728394 0.317849308252334595
0.24058455228805542 0.0948608145117759705 0.0564467683434486389
0.13737410306930542 0.35402214527130127 0.317849308252334595
0.207457050681114197 0.52569878101348877 -0.119849309325218201
0.0510686449706554413 0.174068227410316467 0.317849308252334595
0.15722385048866272 -0.134654194116592407 -0.22174409031867981
-0.247617647051811218 0.227545619010925293 0.121708206832408905
-0.092828407883644104 0.113833211362361908 -0.0861801281571388245
-0.0148243019357323647 -0.0202763117849826813 -0.0861801281571388245
-0.0147437034174799919 -0.233336463570594788 0.317849308252334595
0.167481511831283569 -0.400461792945861816 0.142267763614654541
0.134160697460174561 -0.191503673791885376 -0.32363206148147583
0.274253517389297485 0.20734192430973053 0.00879120081663131714
0.274253517389297485 0.726874947547912598 0.0400210469961166382
0.24058455228805542 0.749236941337585449 -0.0106412293389439583
0.697739660739898682 -0.395411372184753418 -0.0881360545754432678
0.108972921967506409 0.172863095998764038 0.317849308252334595
0.0494351126253604889 0.0183272846043109894 -0.119849309325218201
-0.000453544605989009142 0.175683110952377319 -0.0861801281571388245
-0.606562674045562744 -0.400461792945861816 0.0719202980399131775
-0.281286627054214478 0.0228048935532569885 -0.102803610265254974
-0.305110543966293335 -0.353927701711654663 -0.484873056411743164
-0.454596370458602905 -0.167446017265319824 0.0673680752515792847
